ply
format ascii 1.0
element vertex 596
property float x
property float y
property float z
property uchar red
property uchar green
property uchar blue
property uchar alpha
end_header
0 0 0 0 0 0 255 
1 0 0 255 0 0 255 
0 1 0 0 255 0 255 
0 0 1 0 0 255 255 
2 0 0 255 0 0 255 
0 2 0 0 255 0 255 
0 0 2 0 0 255 255 
3 0 0 255 0 0 255 
0 3 0 0 255 0 255 
0 0 3 0 0 255 255 
4 0 0 255 0 0 255 
0 4 0 0 255 0 255 
0 0 4 0 0 255 255 
5 0 0 255 0 0 255 
0 5 0 0 255 0 255 
0 0 5 0 0 255 255 
6 0 0 255 0 0 255 
0 6 0 0 255 0 255 
0 0 6 0 0 255 255 
7 0 0 255 0 0 255 
0 7 0 0 255 0 255 
0 0 7 0 0 255 255 
8 0 0 255 0 0 255 
0 8 0 0 255 0 255 
0 0 8 0 0 255 255 
9 0 0 255 0 0 255 
0 9 0 0 255 0 255 
0 0 9 0 0 255 255 
10 0 0 255 0 0 255 
0 10 0 0 255 0 255 
0 0 10 0 0 255 255 
11 0 0 255 0 0 255 
0 11 0 0 255 0 255 
0 0 11 0 0 255 255 
12 0 0 255 0 0 255 
0 12 0 0 255 0 255 
0 0 12 0 0 255 255 
13 0 0 255 0 0 255 
0 13 0 0 255 0 255 
0 0 13 0 0 255 255 
14 0 0 255 0 0 255 
0 14 0 0 255 0 255 
0 0 14 0 0 255 255 
15 0 0 255 0 0 255 
0 15 0 0 255 0 255 
0 0 15 0 0 255 255 
16 0 0 255 0 0 255 
0 16 0 0 255 0 255 
0 0 16 0 0 255 255 
17 0 0 255 0 0 255 
0 17 0 0 255 0 255 
0 0 17 0 0 255 255 
18 0 0 255 0 0 255 
0 18 0 0 255 0 255 
0 0 18 0 0 255 255 
19 0 0 255 0 0 255 
0 19 0 0 255 0 255 
0 0 19 0 0 255 255 
20 0 0 255 0 0 255 
0 20 0 0 255 0 255 
0 0 20 0 0 255 255 
21 0 0 255 0 0 255 
0 21 0 0 255 0 255 
0 0 21 0 0 255 255 
22 0 0 255 0 0 255 
0 22 0 0 255 0 255 
0 0 22 0 0 255 255 
23 0 0 255 0 0 255 
0 23 0 0 255 0 255 
0 0 23 0 0 255 255 
24 0 0 255 0 0 255 
0 24 0 0 255 0 255 
0 0 24 0 0 255 255 
25 0 0 255 0 0 255 
0 25 0 0 255 0 255 
0 0 25 0 0 255 255 
26 0 0 255 0 0 255 
0 26 0 0 255 0 255 
0 0 26 0 0 255 255 
27 0 0 255 0 0 255 
0 27 0 0 255 0 255 
0 0 27 0 0 255 255 
28 0 0 255 0 0 255 
0 28 0 0 255 0 255 
0 0 28 0 0 255 255 
29 0 0 255 0 0 255 
0 29 0 0 255 0 255 
0 0 29 0 0 255 255 
30 0 0 255 0 0 255 
0 30 0 0 255 0 255 
0 0 30 0 0 255 255 
31 0 0 255 0 0 255 
0 31 0 0 255 0 255 
0 0 31 0 0 255 255 
32 0 0 255 0 0 255 
0 32 0 0 255 0 255 
0 0 32 0 0 255 255 
33 0 0 255 0 0 255 
0 33 0 0 255 0 255 
0 0 33 0 0 255 255 
34 0 0 255 0 0 255 
0 34 0 0 255 0 255 
0 0 34 0 0 255 255 
35 0 0 255 0 0 255 
0 35 0 0 255 0 255 
0 0 35 0 0 255 255 
36 0 0 255 0 0 255 
0 36 0 0 255 0 255 
0 0 36 0 0 255 255 
37 0 0 255 0 0 255 
0 37 0 0 255 0 255 
0 0 37 0 0 255 255 
38 0 0 255 0 0 255 
0 38 0 0 255 0 255 
0 0 38 0 0 255 255 
39 0 0 255 0 0 255 
0 39 0 0 255 0 255 
0 0 39 0 0 255 255 
40 0 0 255 0 0 255 
0 40 0 0 255 0 255 
0 0 40 0 0 255 255 
41 0 0 255 0 0 255 
0 41 0 0 255 0 255 
0 0 41 0 0 255 255 
42 0 0 255 0 0 255 
0 42 0 0 255 0 255 
0 0 42 0 0 255 255 
43 0 0 255 0 0 255 
0 43 0 0 255 0 255 
0 0 43 0 0 255 255 
44 0 0 255 0 0 255 
0 44 0 0 255 0 255 
0 0 44 0 0 255 255 
45 0 0 255 0 0 255 
0 45 0 0 255 0 255 
0 0 45 0 0 255 255 
46 0 0 255 0 0 255 
0 46 0 0 255 0 255 
0 0 46 0 0 255 255 
47 0 0 255 0 0 255 
0 47 0 0 255 0 255 
0 0 47 0 0 255 255 
48 0 0 255 0 0 255 
0 48 0 0 255 0 255 
0 0 48 0 0 255 255 
49 0 0 255 0 0 255 
0 49 0 0 255 0 255 
0 0 49 0 0 255 255 
50 0 0 255 0 0 255 
0 50 0 0 255 0 255 
0 0 50 0 0 255 255 
51 0 0 255 0 0 255 
0 51 0 0 255 0 255 
0 0 51 0 0 255 255 
52 0 0 255 0 0 255 
0 52 0 0 255 0 255 
0 0 52 0 0 255 255 
53 0 0 255 0 0 255 
0 53 0 0 255 0 255 
0 0 53 0 0 255 255 
54 0 0 255 0 0 255 
0 54 0 0 255 0 255 
0 0 54 0 0 255 255 
55 0 0 255 0 0 255 
0 55 0 0 255 0 255 
0 0 55 0 0 255 255 
56 0 0 255 0 0 255 
0 56 0 0 255 0 255 
0 0 56 0 0 255 255 
57 0 0 255 0 0 255 
0 57 0 0 255 0 255 
0 0 57 0 0 255 255 
58 0 0 255 0 0 255 
0 58 0 0 255 0 255 
0 0 58 0 0 255 255 
59 0 0 255 0 0 255 
0 59 0 0 255 0 255 
0 0 59 0 0 255 255 
60 0 0 255 0 0 255 
0 60 0 0 255 0 255 
0 0 60 0 0 255 255 
61 0 0 255 0 0 255 
0 61 0 0 255 0 255 
0 0 61 0 0 255 255 
62 0 0 255 0 0 255 
0 62 0 0 255 0 255 
0 0 62 0 0 255 255 
63 0 0 255 0 0 255 
0 63 0 0 255 0 255 
0 0 63 0 0 255 255 
64 0 0 255 0 0 255 
0 64 0 0 255 0 255 
0 0 64 0 0 255 255 
65 0 0 255 0 0 255 
0 65 0 0 255 0 255 
0 0 65 0 0 255 255 
66 0 0 255 0 0 255 
0 66 0 0 255 0 255 
0 0 66 0 0 255 255 
67 0 0 255 0 0 255 
0 67 0 0 255 0 255 
0 0 67 0 0 255 255 
68 0 0 255 0 0 255 
0 68 0 0 255 0 255 
0 0 68 0 0 255 255 
69 0 0 255 0 0 255 
0 69 0 0 255 0 255 
0 0 69 0 0 255 255 
70 0 0 255 0 0 255 
0 70 0 0 255 0 255 
0 0 70 0 0 255 255 
71 0 0 255 0 0 255 
0 71 0 0 255 0 255 
0 0 71 0 0 255 255 
72 0 0 255 0 0 255 
0 72 0 0 255 0 255 
0 0 72 0 0 255 255 
73 0 0 255 0 0 255 
0 73 0 0 255 0 255 
0 0 73 0 0 255 255 
74 0 0 255 0 0 255 
0 74 0 0 255 0 255 
0 0 74 0 0 255 255 
75 0 0 255 0 0 255 
0 75 0 0 255 0 255 
0 0 75 0 0 255 255 
76 0 0 255 0 0 255 
0 76 0 0 255 0 255 
0 0 76 0 0 255 255 
77 0 0 255 0 0 255 
0 77 0 0 255 0 255 
0 0 77 0 0 255 255 
78 0 0 255 0 0 255 
0 78 0 0 255 0 255 
0 0 78 0 0 255 255 
79 0 0 255 0 0 255 
0 79 0 0 255 0 255 
0 0 79 0 0 255 255 
80 0 0 255 0 0 255 
0 80 0 0 255 0 255 
0 0 80 0 0 255 255 
81 0 0 255 0 0 255 
0 81 0 0 255 0 255 
0 0 81 0 0 255 255 
82 0 0 255 0 0 255 
0 82 0 0 255 0 255 
0 0 82 0 0 255 255 
83 0 0 255 0 0 255 
0 83 0 0 255 0 255 
0 0 83 0 0 255 255 
84 0 0 255 0 0 255 
0 84 0 0 255 0 255 
0 0 84 0 0 255 255 
85 0 0 255 0 0 255 
0 85 0 0 255 0 255 
0 0 85 0 0 255 255 
86 0 0 255 0 0 255 
0 86 0 0 255 0 255 
0 0 86 0 0 255 255 
87 0 0 255 0 0 255 
0 87 0 0 255 0 255 
0 0 87 0 0 255 255 
88 0 0 255 0 0 255 
0 88 0 0 255 0 255 
0 0 88 0 0 255 255 
89 0 0 255 0 0 255 
0 89 0 0 255 0 255 
0 0 89 0 0 255 255 
90 0 0 255 0 0 255 
0 90 0 0 255 0 255 
0 0 90 0 0 255 255 
91 0 0 255 0 0 255 
0 91 0 0 255 0 255 
0 0 91 0 0 255 255 
92 0 0 255 0 0 255 
0 92 0 0 255 0 255 
0 0 92 0 0 255 255 
93 0 0 255 0 0 255 
0 93 0 0 255 0 255 
0 0 93 0 0 255 255 
94 0 0 255 0 0 255 
0 94 0 0 255 0 255 
0 0 94 0 0 255 255 
95 0 0 255 0 0 255 
0 95 0 0 255 0 255 
0 0 95 0 0 255 255 
96 0 0 255 0 0 255 
0 96 0 0 255 0 255 
0 0 96 0 0 255 255 
97 0 0 255 0 0 255 
0 97 0 0 255 0 255 
0 0 97 0 0 255 255 
98 0 0 255 0 0 255 
0 98 0 0 255 0 255 
0 0 98 0 0 255 255 
99 0 0 255 0 0 255 
0 99 0 0 255 0 255 
0 0 99 0 0 255 255 
1.59457 0.514029 32.9875 0 0 0 255 
0.594574 0.513424 32.9883 127 0 0 255 
1.59359 1.08688 32.1678 0 127 0 255 
1.59462 -0.305631 32.4146 0 0 127 255 
-0.405426 0.512819 32.989 127 0 0 255 
1.5926 1.65973 31.3482 0 127 0 255 
1.59467 -1.12529 31.8418 0 0 127 255 
-1.40543 0.512215 32.9898 127 0 0 255 
1.59162 2.23258 30.5285 0 127 0 255 
1.59472 -1.94495 31.2689 0 0 127 255 
-2.40542 0.51161 32.9906 127 0 0 255 
1.59063 2.80543 29.7088 0 127 0 255 
1.59477 -2.76461 30.6961 0 0 127 255 
-3.40542 0.511006 32.9914 127 0 0 255 
1.58965 3.37828 28.8892 0 127 0 255 
1.59482 -3.58427 30.1232 0 0 127 255 
-4.40542 0.510401 32.9922 127 0 0 255 
1.58866 3.95113 28.0695 0 127 0 255 
1.59487 -4.40393 29.5504 0 0 127 255 
-5.40542 0.509796 32.9929 127 0 0 255 
1.58767 4.52398 27.2499 0 127 0 255 
1.59492 -5.22359 28.9775 0 0 127 255 
-6.40542 0.509192 32.9937 127 0 0 255 
1.58669 5.09683 26.4302 0 127 0 255 
1.59496 -6.04325 28.4047 0 0 127 255 
-7.40542 0.508587 32.9945 127 0 0 255 
1.5857 5.66969 25.6105 0 127 0 255 
1.59501 -6.86291 27.8318 0 0 127 255 
-8.40542 0.507982 32.9953 127 0 0 255 
1.58472 6.24254 24.7909 0 127 0 255 
1.59506 -7.68257 27.259 0 0 127 255 
-9.40542 0.507378 32.9961 127 0 0 255 
1.58373 6.81539 23.9712 0 127 0 255 
1.59511 -8.50223 26.6861 0 0 127 255 
-10.4054 0.506773 32.9968 127 0 0 255 
1.58275 7.38824 23.1516 0 127 0 255 
1.59516 -9.32189 26.1133 0 0 127 255 
-11.4054 0.506168 32.9976 127 0 0 255 
1.58176 7.96109 22.3319 0 127 0 255 
1.59521 -10.1415 25.5404 0 0 127 255 
-12.4054 0.505564 32.9984 127 0 0 255 
1.58078 8.53394 21.5123 0 127 0 255 
1.59526 -10.9612 24.9676 0 0 127 255 
-13.4054 0.504959 32.9992 127 0 0 255 
1.57979 9.10679 20.6926 0 127 0 255 
1.59531 -11.7809 24.3947 0 0 127 255 
-14.4054 0.504354 33 127 0 0 255 
1.57881 9.67964 19.8729 0 127 0 255 
1.59536 -12.6005 23.8219 0 0 127 255 
-15.4054 0.50375 33.0007 127 0 0 255 
1.57782 10.2525 19.0533 0 127 0 255 
1.59541 -13.4202 23.249 0 0 127 255 
-16.4054 0.503145 33.0015 127 0 0 255 
1.57683 10.8253 18.2336 0 127 0 255 
1.59545 -14.2398 22.6762 0 0 127 255 
-17.4054 0.50254 33.0023 127 0 0 255 
1.57585 11.3982 17.414 0 127 0 255 
1.5955 -15.0595 22.1033 0 0 127 255 
-18.4054 0.501936 33.0031 127 0 0 255 
1.57486 11.971 16.5943 0 127 0 255 
1.59555 -15.8792 21.5305 0 0 127 255 
-19.4054 0.501331 33.0039 127 0 0 255 
1.57388 12.5439 15.7746 0 127 0 255 
1.5956 -16.6988 20.9576 0 0 127 255 
-20.4054 0.500727 33.0046 127 0 0 255 
1.57289 13.1167 14.955 0 127 0 255 
1.59565 -17.5185 20.3848 0 0 127 255 
-21.4054 0.500122 33.0054 127 0 0 255 
1.57191 13.6896 14.1353 0 127 0 255 
1.5957 -18.3381 19.8119 0 0 127 255 
-22.4054 0.499517 33.0062 127 0 0 255 
1.57092 14.2624 13.3157 0 127 0 255 
1.59575 -19.1578 19.2391 0 0 127 255 
-23.4054 0.498913 33.007 127 0 0 255 
1.56994 14.8353 12.496 0 127 0 255 
1.5958 -19.9775 18.6662 0 0 127 255 
-24.4054 0.498308 33.0078 127 0 0 255 
1.56895 15.4081 11.6763 0 127 0 255 
1.59585 -20.7971 18.0934 0 0 127 255 
-25.4054 0.497703 33.0085 127 0 0 255 
1.56797 15.981 10.8567 0 127 0 255 
1.59589 -21.6168 17.5205 0 0 127 255 
-26.4054 0.497099 33.0093 127 0 0 255 
1.56698 16.5539 10.037 0 127 0 255 
1.59594 -22.4364 16.9477 0 0 127 255 
-27.4054 0.496494 33.0101 127 0 0 255 
1.56599 17.1267 9.21737 0 127 0 255 
1.59599 -23.2561 16.3748 0 0 127 255 
-28.4054 0.495889 33.0109 127 0 0 255 
1.56501 17.6996 8.39771 0 127 0 255 
1.59604 -24.0758 15.802 0 0 127 255 
-29.4054 0.495285 33.0117 127 0 0 255 
1.56402 18.2724 7.57805 0 127 0 255 
1.59609 -24.8954 15.2291 0 0 127 255 
-30.4054 0.49468 33.0124 127 0 0 255 
1.56304 18.8453 6.75839 0 127 0 255 
1.59614 -25.7151 14.6562 0 0 127 255 
-31.4054 0.494075 33.0132 127 0 0 255 
1.56205 19.4181 5.93873 0 127 0 255 
1.59619 -26.5347 14.0834 0 0 127 255 
-32.4054 0.493471 33.014 127 0 0 255 
1.56107 19.991 5.11907 0 127 0 255 
1.59624 -27.3544 13.5105 0 0 127 255 
-33.4054 0.492866 33.0148 127 0 0 255 
1.56008 20.5638 4.29941 0 127 0 255 
1.59629 -28.1741 12.9377 0 0 127 255 
-34.4054 0.492261 33.0156 127 0 0 255 
1.5591 21.1367 3.47975 0 127 0 255 
1.59634 -28.9937 12.3648 0 0 127 255 
-35.4054 0.491657 33.0163 127 0 0 255 
1.55811 21.7095 2.66009 0 127 0 255 
1.59638 -29.8134 11.792 0 0 127 255 
-36.4054 0.491052 33.0171 127 0 0 255 
1.55713 22.2824 1.84044 0 127 0 255 
1.59643 -30.633 11.2191 0 0 127 255 
-37.4054 0.490447 33.0179 127 0 0 255 
1.55614 22.8552 1.02078 0 127 0 255 
1.59648 -31.4527 10.6463 0 0 127 255 
-38.4054 0.489843 33.0187 127 0 0 255 
1.55515 23.4281 0.201118 0 127 0 255 
1.59653 -32.2724 10.0734 0 0 127 255 
-39.4054 0.489238 33.0195 127 0 0 255 
1.55417 24.0009 -0.618542 0 127 0 255 
1.59658 -33.092 9.50059 0 0 127 255 
-40.4054 0.488634 33.0202 127 0 0 255 
1.55318 24.5738 -1.4382 0 127 0 255 
1.59663 -33.9117 8.92774 0 0 127 255 
-41.4054 0.488029 33.021 127 0 0 255 
1.5522 25.1466 -2.25786 0 127 0 255 
1.59668 -34.7313 8.35489 0 0 127 255 
-42.4054 0.487424 33.0218 127 0 0 255 
1.55121 25.7195 -3.07752 0 127 0 255 
1.59673 -35.551 7.78204 0 0 127 255 
-43.4054 0.48682 33.0226 127 0 0 255 
1.55023 26.2923 -3.89718 0 127 0 255 
1.59678 -36.3706 7.20918 0 0 127 255 
-44.4054 0.486215 33.0233 127 0 0 255 
1.54924 26.8652 -4.71684 0 127 0 255 
1.59682 -37.1903 6.63633 0 0 127 255 
-45.4054 0.48561 33.0241 127 0 0 255 
1.54826 27.438 -5.5365 0 127 0 255 
1.59687 -38.01 6.06348 0 0 127 255 
-46.4054 0.485006 33.0249 127 0 0 255 
1.54727 28.0109 -6.35616 0 127 0 255 
1.59692 -38.8296 5.49063 0 0 127 255 
-47.4054 0.484401 33.0257 127 0 0 255 
1.54628 28.5837 -7.17581 0 127 0 255 
1.59697 -39.6493 4.91778 0 0 127 255 
-48.4054 0.483796 33.0265 127 0 0 255 
1.5453 29.1566 -7.99547 0 127 0 255 
1.59702 -40.4689 4.34493 0 0 127 255 
-49.4054 0.483192 33.0272 127 0 0 255 
1.54431 29.7294 -8.81513 0 127 0 255 
1.59707 -41.2886 3.77208 0 0 127 255 
-50.4054 0.482587 33.028 127 0 0 255 
1.54333 30.3023 -9.63479 0 127 0 255 
1.59712 -42.1083 3.19923 0 0 127 255 
-51.4054 0.481982 33.0288 127 0 0 255 
1.54234 30.8751 -10.4545 0 127 0 255 
1.59717 -42.9279 2.62638 0 0 127 255 
-52.4054 0.481378 33.0296 127 0 0 255 
1.54136 31.448 -11.2741 0 127 0 255 
1.59722 -43.7476 2.05353 0 0 127 255 
-53.4054 0.480773 33.0304 127 0 0 255 
1.54037 32.0208 -12.0938 0 127 0 255 
1.59727 -44.5672 1.48067 0 0 127 255 
-54.4054 0.480168 33.0311 127 0 0 255 
1.53939 32.5937 -12.9134 0 127 0 255 
1.59731 -45.3869 0.907823 0 0 127 255 
-55.4054 0.479564 33.0319 127 0 0 255 
1.5384 33.1665 -13.7331 0 127 0 255 
1.59736 -46.2066 0.334972 0 0 127 255 
-56.4054 0.478959 33.0327 127 0 0 255 
1.53742 33.7394 -14.5527 0 127 0 255 
1.59741 -47.0262 -0.237879 0 0 127 255 
-57.4054 0.478354 33.0335 127 0 0 255 
1.53643 34.3122 -15.3724 0 127 0 255 
1.59746 -47.8459 -0.81073 0 0 127 255 
-58.4054 0.47775 33.0343 127 0 0 255 
1.53544 34.8851 -16.1921 0 127 0 255 
1.59751 -48.6655 -1.38358 0 0 127 255 
-59.4054 0.477145 33.035 127 0 0 255 
1.53446 35.4579 -17.0117 0 127 0 255 
1.59756 -49.4852 -1.95643 0 0 127 255 
-60.4054 0.476541 33.0358 127 0 0 255 
1.53347 36.0308 -17.8314 0 127 0 255 
1.59761 -50.3049 -2.52928 0 0 127 255 
-61.4054 0.475936 33.0366 127 0 0 255 
1.53249 36.6036 -18.651 0 127 0 255 
1.59766 -51.1245 -3.10213 0 0 127 255 
-62.4054 0.475331 33.0374 127 0 0 255 
1.5315 37.1765 -19.4707 0 127 0 255 
1.59771 -51.9442 -3.67499 0 0 127 255 
-63.4054 0.474727 33.0382 127 0 0 255 
1.53052 37.7493 -20.2904 0 127 0 255 
1.59775 -52.7638 -4.24784 0 0 127 255 
-64.4054 0.474122 33.0389 127 0 0 255 
1.52953 38.3222 -21.11 0 127 0 255 
1.5978 -53.5835 -4.82069 0 0 127 255 
-65.4054 0.473517 33.0397 127 0 0 255 
1.52855 38.895 -21.9297 0 127 0 255 
1.59785 -54.4032 -5.39354 0 0 127 255 
-66.4054 0.472913 33.0405 127 0 0 255 
1.52756 39.4679 -22.7493 0 127 0 255 
1.5979 -55.2228 -5.96639 0 0 127 255 
-67.4054 0.472308 33.0413 127 0 0 255 
1.52658 40.0407 -23.569 0 127 0 255 
1.59795 -56.0425 -6.53924 0 0 127 255 
-68.4054 0.471703 33.0421 127 0 0 255 
1.52559 40.6136 -24.3887 0 127 0 255 
1.598 -56.8621 -7.11209 0 0 127 255 
-69.4054 0.471099 33.0428 127 0 0 255 
1.5246 41.1864 -25.2083 0 127 0 255 
1.59805 -57.6818 -7.68494 0 0 127 255 
-70.4054 0.470494 33.0436 127 0 0 255 
1.52362 41.7593 -26.028 0 127 0 255 
1.5981 -58.5015 -8.25779 0 0 127 255 
-71.4054 0.469889 33.0444 127 0 0 255 
1.52263 42.3321 -26.8476 0 127 0 255 
1.59815 -59.3211 -8.83064 0 0 127 255 
-72.4054 0.469285 33.0452 127 0 0 255 
1.52165 42.905 -27.6673 0 127 0 255 
1.5982 -60.1408 -9.4035 0 0 127 255 
-73.4054 0.46868 33.046 127 0 0 255 
1.52066 43.4778 -28.487 0 127 0 255 
1.59824 -60.9604 -9.97635 0 0 127 255 
-74.4054 0.468075 33.0467 127 0 0 255 
1.51968 44.0507 -29.3066 0 127 0 255 
1.59829 -61.7801 -10.5492 0 0 127 255 
-75.4054 0.467471 33.0475 127 0 0 255 
1.51869 44.6235 -30.1263 0 127 0 255 
1.59834 -62.5998 -11.122 0 0 127 255 
-76.4054 0.466866 33.0483 127 0 0 255 
1.51771 45.1964 -30.9459 0 127 0 255 
1.59839 -63.4194 -11.6949 0 0 127 255 
-77.4054 0.466261 33.0491 127 0 0 255 
1.51672 45.7692 -31.7656 0 127 0 255 
1.59844 -64.2391 -12.2678 0 0 127 255 
-78.4054 0.465657 33.0499 127 0 0 255 
1.51573 46.3421 -32.5852 0 127 0 255 
1.59849 -65.0587 -12.8406 0 0 127 255 
-79.4054 0.465052 33.0506 127 0 0 255 
1.51475 46.9149 -33.4049 0 127 0 255 
1.59854 -65.8784 -13.4135 0 0 127 255 
-80.4054 0.464448 33.0514 127 0 0 255 
1.51376 47.4878 -34.2246 0 127 0 255 
1.59859 -66.6981 -13.9863 0 0 127 255 
-81.4054 0.463843 33.0522 127 0 0 255 
1.51278 48.0606 -35.0442 0 127 0 255 
1.59864 -67.5177 -14.5592 0 0 127 255 
-82.4054 0.463238 33.053 127 0 0 255 
1.51179 48.6335 -35.8639 0 127 0 255 
1.59868 -68.3374 -15.132 0 0 127 255 
-83.4054 0.462634 33.0538 127 0 0 255 
1.51081 49.2063 -36.6835 0 127 0 255 
1.59873 -69.157 -15.7049 0 0 127 255 
-84.4054 0.462029 33.0545 127 0 0 255 
1.50982 49.7792 -37.5032 0 127 0 255 
1.59878 -69.9767 -16.2777 0 0 127 255 
-85.4054 0.461424 33.0553 127 0 0 255 
1.50884 50.352 -38.3229 0 127 0 255 
1.59883 -70.7963 -16.8506 0 0 127 255 
-86.4054 0.46082 33.0561 127 0 0 255 
1.50785 50.9249 -39.1425 0 127 0 255 
1.59888 -71.616 -17.4234 0 0 127 255 
-87.4054 0.460215 33.0569 127 0 0 255 
1.50687 51.4977 -39.9622 0 127 0 255 
1.59893 -72.4357 -17.9963 0 0 127 255 
-88.4054 0.45961 33.0577 127 0 0 255 
1.50588 52.0706 -40.7818 0 127 0 255 
1.59898 -73.2553 -18.5691 0 0 127 255 
-89.4054 0.459006 33.0584 127 0 0 255 
1.50489 52.6434 -41.6015 0 127 0 255 
1.59903 -74.075 -19.142 0 0 127 255 
-90.4054 0.458401 33.0592 127 0 0 255 
1.50391 53.2163 -42.4212 0 127 0 255 
1.59908 -74.8946 -19.7148 0 0 127 255 
-91.4054 0.457796 33.06 127 0 0 255 
1.50292 53.7891 -43.2408 0 127 0 255 
1.59912 -75.7143 -20.2877 0 0 127 255 
-92.4054 0.457192 33.0608 127 0 0 255 
1.50194 54.362 -44.0605 0 127 0 255 
1.59917 -76.534 -20.8605 0 0 127 255 
-93.4054 0.456587 33.0616 127 0 0 255 
1.50095 54.9348 -44.8801 0 127 0 255 
1.59922 -77.3536 -21.4334 0 0 127 255 
-94.4054 0.455982 33.0623 127 0 0 255 
1.49997 55.5077 -45.6998 0 127 0 255 
1.59927 -78.1733 -22.0062 0 0 127 255 
-95.4054 0.455378 33.0631 127 0 0 255 
1.49898 56.0806 -46.5195 0 127 0 255 
1.59932 -78.9929 -22.5791 0 0 127 255 
-96.4054 0.454773 33.0639 127 0 0 255 
1.498 56.6534 -47.3391 0 127 0 255 
1.59937 -79.8126 -23.1519 0 0 127 255 
-97.4054 0.454168 33.0647 127 0 0 255 
1.49701 57.2263 -48.1588 0 127 0 255 
1.59942 -80.6323 -23.7248 0 0 127 255 
