ply
format ascii 1.0
element vertex 333
property float x
property float y
property float z
property uchar red
property uchar green
property uchar blue
property uchar alpha
end_header
1.54916 -1.85638 31.8731 255 255 0 255 
0.578034 -1.66736 32.0187 255 255 0 255 
-0.393087 -1.47834 32.1643 255 255 0 255 
-1.36421 -1.28933 32.3099 255 255 0 255 
-2.33533 -1.10031 32.4555 255 255 0 255 
1.54798 -1.25 31.078 255 255 0 255 
0.576856 -1.06098 31.2236 255 255 0 255 
-0.394265 -0.871959 31.3691 255 255 0 255 
-1.36539 -0.68294 31.5147 255 255 0 255 
-2.33651 -0.493921 31.6603 255 255 0 255 
1.5468 -0.643611 30.2828 255 255 0 255 
0.575678 -0.454592 30.4284 255 255 0 255 
-0.395443 -0.265573 30.574 255 255 0 255 
-1.36657 -0.0765539 30.7196 255 255 0 255 
-2.33769 0.112465 30.8651 255 255 0 255 
1.54562 -0.0372251 29.4876 255 255 0 255 
0.574501 0.151794 29.6332 255 255 0 255 
-0.396621 0.340813 29.7788 255 255 0 255 
-1.36774 0.529832 29.9244 255 255 0 255 
-2.33887 0.718851 30.07 255 255 0 255 
1.54444 0.569161 28.6925 255 255 0 255 
0.573323 0.75818 28.8381 255 255 0 255 
-0.397799 0.947199 28.9836 255 255 0 255 
-1.36892 1.13622 29.1292 255 255 0 255 
-2.34004 1.32524 29.2748 255 255 0 255 
1.54327 1.17555 27.8973 255 255 0 255 
0.572145 1.36457 28.0429 255 255 0 255 
-0.398977 1.55358 28.1885 255 255 0 255 
-1.3701 1.7426 28.334 255 255 0 255 
-2.34122 1.93162 28.4796 255 255 0 255 
1.54209 1.78193 27.1021 255 255 0 255 
0.570967 1.97095 27.2477 255 255 0 255 
-0.400155 2.15997 27.3933 255 255 0 255 
-1.37128 2.34899 27.5389 255 255 0 255 
-2.3424 2.53801 27.6845 255 255 0 255 
1.54916 -1.85638 31.8731 0 0 0 255 
0.578034 -1.66736 32.0187 127 0 0 255 
1.54798 -1.25 31.078 0 127 0 255 
1.31058 -2.62876 31.2845 0 0 127 255 
-0.393087 -1.47834 32.1643 127 0 0 255 
1.5468 -0.643611 30.2828 0 127 0 255 
1.07199 -3.40114 30.6958 0 0 127 255 
-1.36421 -1.28933 32.3099 127 0 0 255 
1.54562 -0.0372251 29.4876 0 127 0 255 
0.833413 -4.17352 30.1072 0 0 127 255 
-2.33533 -1.10031 32.4555 127 0 0 255 
1.54444 0.569161 28.6925 0 127 0 255 
0.594832 -4.9459 29.5185 0 0 127 255 
-3.30645 -0.911288 32.6011 127 0 0 255 
1.54327 1.17555 27.8973 0 127 0 255 
0.356251 -5.71827 28.9299 0 0 127 255 
-4.27758 -0.722269 32.7466 127 0 0 255 
1.54209 1.78193 27.1021 0 127 0 255 
0.11767 -6.49065 28.3412 0 0 127 255 
-5.2487 -0.533249 32.8922 127 0 0 255 
1.54091 2.38832 26.307 0 127 0 255 
-0.120911 -7.26303 27.7526 0 0 127 255 
-6.21982 -0.34423 33.0378 127 0 0 255 
1.53973 2.9947 25.5118 0 127 0 255 
-0.359493 -8.03541 27.1639 0 0 127 255 
-7.19094 -0.155211 33.1834 127 0 0 255 
1.53855 3.60109 24.7166 0 127 0 255 
-0.598074 -8.80779 26.5753 0 0 127 255 
-8.16206 0.0338076 33.329 127 0 0 255 
1.53738 4.20748 23.9215 0 127 0 255 
-0.836655 -9.58016 25.9866 0 0 127 255 
-9.13318 0.222827 33.4746 127 0 0 255 
1.5362 4.81386 23.1263 0 127 0 255 
-1.07524 -10.3525 25.398 0 0 127 255 
-10.1043 0.411846 33.6201 127 0 0 255 
1.53502 5.42025 22.3311 0 127 0 255 
-1.31382 -11.1249 24.8093 0 0 127 255 
-11.0754 0.600865 33.7657 127 0 0 255 
1.53384 6.02663 21.5359 0 127 0 255 
-1.5524 -11.8973 24.2207 0 0 127 255 
-12.0465 0.789884 33.9113 127 0 0 255 
1.53266 6.63302 20.7408 0 127 0 255 
-1.79098 -12.6697 23.632 0 0 127 255 
-13.0177 0.978903 34.0569 127 0 0 255 
1.53149 7.23941 19.9456 0 127 0 255 
-2.02956 -13.4421 23.0434 0 0 127 255 
-13.9888 1.16792 34.2025 127 0 0 255 
1.53031 7.84579 19.1504 0 127 0 255 
-2.26814 -14.2144 22.4547 0 0 127 255 
-14.9599 1.35694 34.348 127 0 0 255 
1.52913 8.45218 18.3553 0 127 0 255 
-2.50672 -14.9868 21.8661 0 0 127 255 
-15.931 1.54596 34.4936 127 0 0 255 
1.52795 9.05856 17.5601 0 127 0 255 
-2.7453 -15.7592 21.2774 0 0 127 255 
-16.9022 1.73498 34.6392 127 0 0 255 
1.52677 9.66495 16.7649 0 127 0 255 
-2.98388 -16.5316 20.6888 0 0 127 255 
-17.8733 1.924 34.7848 127 0 0 255 
1.5256 10.2713 15.9698 0 127 0 255 
-3.22247 -17.3039 20.1001 0 0 127 255 
-18.8444 2.11302 34.9304 127 0 0 255 
1.52442 10.8777 15.1746 0 127 0 255 
-3.46105 -18.0763 19.5115 0 0 127 255 
-19.8155 2.30204 35.076 127 0 0 255 
1.52324 11.4841 14.3794 0 127 0 255 
-3.69963 -18.8487 18.9228 0 0 127 255 
-20.7866 2.49106 35.2215 127 0 0 255 
1.52206 12.0905 13.5842 0 127 0 255 
-3.93821 -19.6211 18.3342 0 0 127 255 
-21.7578 2.68007 35.3671 127 0 0 255 
1.52088 12.6969 12.7891 0 127 0 255 
-4.17679 -20.3935 17.7455 0 0 127 255 
-22.7289 2.86909 35.5127 127 0 0 255 
1.51971 13.3033 11.9939 0 127 0 255 
-4.41537 -21.1658 17.1568 0 0 127 255 
-23.7 3.05811 35.6583 127 0 0 255 
1.51853 13.9096 11.1987 0 127 0 255 
-4.65395 -21.9382 16.5682 0 0 127 255 
-24.6711 3.24713 35.8039 127 0 0 255 
1.51735 14.516 10.4036 0 127 0 255 
-4.89253 -22.7106 15.9795 0 0 127 255 
-25.6423 3.43615 35.9494 127 0 0 255 
1.51617 15.1224 9.6084 0 127 0 255 
-5.13111 -23.483 15.3909 0 0 127 255 
-26.6134 3.62517 36.095 127 0 0 255 
1.515 15.7288 8.81323 0 127 0 255 
-5.3697 -24.2553 14.8022 0 0 127 255 
-27.5845 3.81419 36.2406 127 0 0 255 
1.51382 16.3352 8.01806 0 127 0 255 
-5.60828 -25.0277 14.2136 0 0 127 255 
-28.5556 4.00321 36.3862 127 0 0 255 
1.51264 16.9416 7.22289 0 127 0 255 
-5.84686 -25.8001 13.6249 0 0 127 255 
-29.5267 4.19223 36.5318 127 0 0 255 
1.51146 17.548 6.42772 0 127 0 255 
-6.08544 -26.5725 13.0363 0 0 127 255 
-30.4979 4.38125 36.6774 127 0 0 255 
1.51028 18.1544 5.63255 0 127 0 255 
-6.32402 -27.3449 12.4476 0 0 127 255 
-31.469 4.57026 36.8229 127 0 0 255 
1.50911 18.7607 4.83738 0 127 0 255 
-6.5626 -28.1172 11.859 0 0 127 255 
-32.4401 4.75928 36.9685 127 0 0 255 
1.50793 19.3671 4.04221 0 127 0 255 
-6.80118 -28.8896 11.2703 0 0 127 255 
-33.4112 4.9483 37.1141 127 0 0 255 
1.50675 19.9735 3.24704 0 127 0 255 
-7.03976 -29.662 10.6817 0 0 127 255 
-34.3824 5.13732 37.2597 127 0 0 255 
1.50557 20.5799 2.45187 0 127 0 255 
-7.27834 -30.4344 10.093 0 0 127 255 
-35.3535 5.32634 37.4053 127 0 0 255 
1.50439 21.1863 1.6567 0 127 0 255 
-7.51693 -31.2068 9.50437 0 0 127 255 
-36.3246 5.51536 37.5508 127 0 0 255 
1.50322 21.7927 0.861532 0 127 0 255 
-7.75551 -31.9791 8.91572 0 0 127 255 
-37.2957 5.70438 37.6964 127 0 0 255 
1.50204 22.3991 0.0663619 0 127 0 255 
-7.99409 -32.7515 8.32707 0 0 127 255 
-38.2668 5.8934 37.842 127 0 0 255 
1.50086 23.0054 -0.728808 0 127 0 255 
-8.23267 -33.5239 7.73842 0 0 127 255 
-39.238 6.08242 37.9876 127 0 0 255 
1.49968 23.6118 -1.52398 0 127 0 255 
-8.47125 -34.2963 7.14977 0 0 127 255 
-40.2091 6.27144 38.1332 127 0 0 255 
1.4985 24.2182 -2.31915 0 127 0 255 
-8.70983 -35.0686 6.56111 0 0 127 255 
-41.1802 6.46045 38.2788 127 0 0 255 
1.49733 24.8246 -3.11432 0 127 0 255 
-8.94841 -35.841 5.97246 0 0 127 255 
-42.1513 6.64947 38.4243 127 0 0 255 
1.49615 25.431 -3.90949 0 127 0 255 
-9.18699 -36.6134 5.38381 0 0 127 255 
-43.1224 6.83849 38.5699 127 0 0 255 
1.49497 26.0374 -4.70466 0 127 0 255 
-9.42557 -37.3858 4.79516 0 0 127 255 
-44.0936 7.02751 38.7155 127 0 0 255 
1.49379 26.6438 -5.49983 0 127 0 255 
-9.66416 -38.1582 4.20651 0 0 127 255 
-45.0647 7.21653 38.8611 127 0 0 255 
1.49261 27.2501 -6.295 0 127 0 255 
-9.90274 -38.9305 3.61786 0 0 127 255 
-46.0358 7.40555 39.0067 127 0 0 255 
1.49144 27.8565 -7.09017 0 127 0 255 
-10.1413 -39.7029 3.0292 0 0 127 255 
-47.0069 7.59457 39.1523 127 0 0 255 
1.49026 28.4629 -7.88533 0 127 0 255 
-10.3799 -40.4753 2.44055 0 0 127 255 
-47.9781 7.78359 39.2978 127 0 0 255 
1.48908 29.0693 -8.6805 0 127 0 255 
-10.6185 -41.2477 1.8519 0 0 127 255 
-48.9492 7.97261 39.4434 127 0 0 255 
1.4879 29.6757 -9.47567 0 127 0 255 
-10.8571 -42.02 1.26325 0 0 127 255 
-49.9203 8.16163 39.589 127 0 0 255 
1.48672 30.2821 -10.2708 0 127 0 255 
-11.0956 -42.7924 0.674595 0 0 127 255 
-50.8914 8.35065 39.7346 127 0 0 255 
1.48555 30.8885 -11.066 0 127 0 255 
-11.3342 -43.5648 0.0859435 0 0 127 255 
-51.8625 8.53966 39.8802 127 0 0 255 
1.48437 31.4948 -11.8612 0 127 0 255 
-11.5728 -44.3372 -0.502708 0 0 127 255 
-52.8337 8.72868 40.0257 127 0 0 255 
1.48319 32.1012 -12.6564 0 127 0 255 
-11.8114 -45.1096 -1.09136 0 0 127 255 
-53.8048 8.9177 40.1713 127 0 0 255 
1.48201 32.7076 -13.4515 0 127 0 255 
-12.05 -45.8819 -1.68001 0 0 127 255 
-54.7759 9.10672 40.3169 127 0 0 255 
1.48083 33.314 -14.2467 0 127 0 255 
-12.2885 -46.6543 -2.26866 0 0 127 255 
-55.747 9.29574 40.4625 127 0 0 255 
1.47966 33.9204 -15.0419 0 127 0 255 
-12.5271 -47.4267 -2.85732 0 0 127 255 
-56.7182 9.48476 40.6081 127 0 0 255 
1.47848 34.5268 -15.837 0 127 0 255 
-12.7657 -48.1991 -3.44597 0 0 127 255 
-57.6893 9.67378 40.7537 127 0 0 255 
1.4773 35.1332 -16.6322 0 127 0 255 
-13.0043 -48.9714 -4.03462 0 0 127 255 
-58.6604 9.8628 40.8992 127 0 0 255 
1.47612 35.7395 -17.4274 0 127 0 255 
-13.2429 -49.7438 -4.62327 0 0 127 255 
-59.6315 10.0518 41.0448 127 0 0 255 
1.47494 36.3459 -18.2225 0 127 0 255 
-13.4815 -50.5162 -5.21192 0 0 127 255 
-60.6026 10.2408 41.1904 127 0 0 255 
1.47377 36.9523 -19.0177 0 127 0 255 
-13.72 -51.2886 -5.80058 0 0 127 255 
-61.5738 10.4299 41.336 127 0 0 255 
1.47259 37.5587 -19.8129 0 127 0 255 
-13.9586 -52.061 -6.38923 0 0 127 255 
-62.5449 10.6189 41.4816 127 0 0 255 
1.47141 38.1651 -20.608 0 127 0 255 
-14.1972 -52.8333 -6.97788 0 0 127 255 
-63.516 10.8079 41.6271 127 0 0 255 
1.47023 38.7715 -21.4032 0 127 0 255 
-14.4358 -53.6057 -7.56653 0 0 127 255 
-64.4871 10.9969 41.7727 127 0 0 255 
1.46905 39.3779 -22.1984 0 127 0 255 
-14.6744 -54.3781 -8.15518 0 0 127 255 
-65.4583 11.1859 41.9183 127 0 0 255 
1.46788 39.9842 -22.9936 0 127 0 255 
-14.9129 -55.1505 -8.74384 0 0 127 255 
-66.4294 11.3749 42.0639 127 0 0 255 
1.4667 40.5906 -23.7887 0 127 0 255 
-15.1515 -55.9229 -9.33249 0 0 127 255 
-67.4005 11.564 42.2095 127 0 0 255 
1.46552 41.197 -24.5839 0 127 0 255 
-15.3901 -56.6952 -9.92114 0 0 127 255 
-68.3716 11.753 42.3551 127 0 0 255 
1.46434 41.8034 -25.3791 0 127 0 255 
-15.6287 -57.4676 -10.5098 0 0 127 255 
-69.3427 11.942 42.5006 127 0 0 255 
1.46316 42.4098 -26.1742 0 127 0 255 
-15.8673 -58.24 -11.0984 0 0 127 255 
-70.3139 12.131 42.6462 127 0 0 255 
1.46199 43.0162 -26.9694 0 127 0 255 
-16.1058 -59.0124 -11.6871 0 0 127 255 
-71.285 12.32 42.7918 127 0 0 255 
1.46081 43.6226 -27.7646 0 127 0 255 
-16.3444 -59.7847 -12.2757 0 0 127 255 
-72.2561 12.5091 42.9374 127 0 0 255 
1.45963 44.2289 -28.5597 0 127 0 255 
-16.583 -60.5571 -12.8644 0 0 127 255 
-73.2272 12.6981 43.083 127 0 0 255 
1.45845 44.8353 -29.3549 0 127 0 255 
-16.8216 -61.3295 -13.4531 0 0 127 255 
-74.1983 12.8871 43.2285 127 0 0 255 
1.45727 45.4417 -30.1501 0 127 0 255 
-17.0602 -62.1019 -14.0417 0 0 127 255 
-75.1695 13.0761 43.3741 127 0 0 255 
1.4561 46.0481 -30.9453 0 127 0 255 
-17.2987 -62.8743 -14.6304 0 0 127 255 
-76.1406 13.2651 43.5197 127 0 0 255 
1.45492 46.6545 -31.7404 0 127 0 255 
-17.5373 -63.6466 -15.219 0 0 127 255 
-77.1117 13.4542 43.6653 127 0 0 255 
1.45374 47.2609 -32.5356 0 127 0 255 
-17.7759 -64.419 -15.8077 0 0 127 255 
-78.0828 13.6432 43.8109 127 0 0 255 
1.45256 47.8673 -33.3308 0 127 0 255 
-18.0145 -65.1914 -16.3963 0 0 127 255 
-79.054 13.8322 43.9565 127 0 0 255 
1.45138 48.4736 -34.1259 0 127 0 255 
-18.2531 -65.9638 -16.985 0 0 127 255 
-80.0251 14.0212 44.102 127 0 0 255 
1.45021 49.08 -34.9211 0 127 0 255 
-18.4917 -66.7361 -17.5736 0 0 127 255 
-80.9962 14.2102 44.2476 127 0 0 255 
1.44903 49.6864 -35.7163 0 127 0 255 
-18.7302 -67.5085 -18.1623 0 0 127 255 
-81.9673 14.3993 44.3932 127 0 0 255 
1.44785 50.2928 -36.5114 0 127 0 255 
-18.9688 -68.2809 -18.7509 0 0 127 255 
-82.9384 14.5883 44.5388 127 0 0 255 
1.44667 50.8992 -37.3066 0 127 0 255 
-19.2074 -69.0533 -19.3396 0 0 127 255 
-83.9096 14.7773 44.6844 127 0 0 255 
1.44549 51.5056 -38.1018 0 127 0 255 
-19.446 -69.8257 -19.9282 0 0 127 255 
-84.8807 14.9663 44.83 127 0 0 255 
1.44432 52.112 -38.8969 0 127 0 255 
-19.6846 -70.598 -20.5169 0 0 127 255 
-85.8518 15.1553 44.9755 127 0 0 255 
1.44314 52.7183 -39.6921 0 127 0 255 
-19.9231 -71.3704 -21.1055 0 0 127 255 
-86.8229 15.3443 45.1211 127 0 0 255 
1.44196 53.3247 -40.4873 0 127 0 255 
-20.1617 -72.1428 -21.6942 0 0 127 255 
-87.7941 15.5334 45.2667 127 0 0 255 
1.44078 53.9311 -41.2825 0 127 0 255 
-20.4003 -72.9152 -22.2828 0 0 127 255 
-88.7652 15.7224 45.4123 127 0 0 255 
1.4396 54.5375 -42.0776 0 127 0 255 
-20.6389 -73.6875 -22.8715 0 0 127 255 
-89.7363 15.9114 45.5579 127 0 0 255 
1.43843 55.1439 -42.8728 0 127 0 255 
-20.8775 -74.4599 -23.4601 0 0 127 255 
-90.7074 16.1004 45.7034 127 0 0 255 
1.43725 55.7503 -43.668 0 127 0 255 
-21.116 -75.2323 -24.0488 0 0 127 255 
-91.6785 16.2894 45.849 127 0 0 255 
1.43607 56.3567 -44.4631 0 127 0 255 
-21.3546 -76.0047 -24.6374 0 0 127 255 
-92.6497 16.4785 45.9946 127 0 0 255 
1.43489 56.963 -45.2583 0 127 0 255 
-21.5932 -76.7771 -25.2261 0 0 127 255 
-93.6208 16.6675 46.1402 127 0 0 255 
1.43372 57.5694 -46.0535 0 127 0 255 
-21.8318 -77.5494 -25.8147 0 0 127 255 
-94.5919 16.8565 46.2858 127 0 0 255 
1.43254 58.1758 -46.8486 0 127 0 255 
-22.0704 -78.3218 -26.4034 0 0 127 255 
