ply
format ascii 1.0
element vertex 1135
property float x
property float y
property float z
property uchar red
property uchar green
property uchar blue
property uchar alpha
end_header
-5.06112 4.1825 -70.9157 0 255 255 255 
-5.06212 4.58792 -71.8526 0 255 255 255 
-5.06312 4.99333 -72.7894 0 255 255 255 
-5.06412 5.39875 -73.7263 0 255 255 255 
-5.06513 5.80416 -74.6632 0 255 255 255 
-5.06613 6.20957 -75.6 0 255 255 255 
-5.06713 6.61499 -76.5369 0 255 255 255 
-5.06813 7.0204 -77.4738 0 255 255 255 
-5.06913 7.42582 -78.4106 0 255 255 255 
-5.07014 7.83123 -79.3475 0 255 255 255 
-5.07114 8.23664 -80.2844 0 255 255 255 
-5.07214 8.64206 -81.2212 0 255 255 255 
-5.07314 9.04747 -82.1581 0 255 255 255 
-5.07414 9.45288 -83.095 0 255 255 255 
-5.07515 9.8583 -84.0318 0 255 255 255 
-5.07615 10.2637 -84.9687 0 255 255 255 
-5.07715 10.6691 -85.9055 0 255 255 255 
-5.07815 11.0745 -86.8424 0 255 255 255 
-5.07915 11.48 -87.7793 0 255 255 255 
-5.08016 11.8854 -88.7161 0 255 255 255 
-5.08116 12.2908 -89.653 0 255 255 255 
-5.08216 12.6962 -90.5899 0 255 255 255 
-5.08316 13.1016 -91.5267 0 255 255 255 
-5.08416 13.507 -92.4636 0 255 255 255 
-5.08517 13.9124 -93.4005 0 255 255 255 
-5.08617 14.3179 -94.3373 0 255 255 255 
-5.08717 14.7233 -95.2742 0 255 255 255 
-5.08817 15.1287 -96.2111 0 255 255 255 
-5.08917 15.5341 -97.1479 0 255 255 255 
-5.09018 15.9395 -98.0848 0 255 255 255 
-5.09118 16.3449 -99.0217 0 255 255 255 
-5.09218 16.7503 -99.9585 0 255 255 255 
-5.09318 17.1558 -100.895 0 255 255 255 
-5.09418 17.5612 -101.832 0 255 255 255 
-5.09519 17.9666 -102.769 0 255 255 255 
-5.09619 18.372 -103.706 0 255 255 255 
-5.09719 18.7774 -104.643 0 255 255 255 
-5.09819 19.1828 -105.58 0 255 255 255 
-5.0992 19.5882 -106.517 0 255 255 255 
-5.1002 19.9936 -107.453 0 255 255 255 
-3.89979 -56.9714 82.8007 0 255 255 255 
-3.90079 -56.566 81.8638 0 255 255 255 
-3.9018 -56.1606 80.927 0 255 255 255 
-3.9028 -55.7552 79.9901 0 255 255 255 
-3.9038 -55.3497 79.0532 0 255 255 255 
-3.9048 -54.9443 78.1164 0 255 255 255 
-3.9058 -54.5389 77.1795 0 255 255 255 
-3.90681 -54.1335 76.2426 0 255 255 255 
-3.90781 -53.7281 75.3058 0 255 255 255 
-3.90881 -53.3227 74.3689 0 255 255 255 
-3.90981 -52.9173 73.432 0 255 255 255 
-3.91081 -52.5118 72.4952 0 255 255 255 
-3.91182 -52.1064 71.5583 0 255 255 255 
-3.91282 -51.701 70.6215 0 255 255 255 
-3.91382 -51.2956 69.6846 0 255 255 255 
-3.91482 -50.8902 68.7477 0 255 255 255 
-3.91582 -50.4848 67.8109 0 255 255 255 
-3.91683 -50.0794 66.874 0 255 255 255 
-3.91783 -49.6739 65.9371 0 255 255 255 
-3.91883 -49.2685 65.0003 0 255 255 255 
-3.91983 -48.8631 64.0634 0 255 255 255 
-3.92083 -48.4577 63.1265 0 255 255 255 
-3.92184 -48.0523 62.1897 0 255 255 255 
-3.92284 -47.6469 61.2528 0 255 255 255 
-3.92384 -47.2415 60.3159 0 255 255 255 
-3.92484 -46.8361 59.3791 0 255 255 255 
-3.92584 -46.4306 58.4422 0 255 255 255 
-3.92685 -46.0252 57.5053 0 255 255 255 
-3.92785 -45.6198 56.5685 0 255 255 255 
-3.92885 -45.2144 55.6316 0 255 255 255 
-3.92985 -44.809 54.6948 0 255 255 255 
-3.93086 -44.4036 53.7579 0 255 255 255 
-3.93186 -43.9982 52.821 0 255 255 255 
-3.93286 -43.5927 51.8842 0 255 255 255 
-3.93386 -43.1873 50.9473 0 255 255 255 
-3.93486 -42.7819 50.0104 0 255 255 255 
-3.93587 -42.3765 49.0736 0 255 255 255 
-3.93687 -41.9711 48.1367 0 255 255 255 
-3.93787 -41.5657 47.1998 0 255 255 255 
-3.93887 -41.1603 46.263 0 255 255 255 
-3.93987 -40.7548 45.3261 0 255 255 255 
-3.94088 -40.3494 44.3892 0 255 255 255 
-3.94188 -39.944 43.4524 0 255 255 255 
-3.94288 -39.5386 42.5155 0 255 255 255 
-3.94388 -39.1332 41.5786 0 255 255 255 
-3.94488 -38.7278 40.6418 0 255 255 255 
-3.94589 -38.3224 39.7049 0 255 255 255 
-3.94689 -37.9169 38.7681 0 255 255 255 
-3.94789 -37.5115 37.8312 0 255 255 255 
-3.94889 -37.1061 36.8943 0 255 255 255 
-3.94989 -36.7007 35.9575 0 255 255 255 
-3.9509 -36.2953 35.0206 0 255 255 255 
-3.9519 -35.8899 34.0837 0 255 255 255 
-3.9529 -35.4845 33.1469 0 255 255 255 
-3.9539 -35.079 32.21 0 255 255 255 
-3.9549 -34.6736 31.2731 0 255 255 255 
-3.95591 -34.2682 30.3363 0 255 255 255 
-3.95691 -33.8628 29.3994 0 255 255 255 
-3.95791 -33.4574 28.4625 0 255 255 255 
-3.95891 -33.052 27.5257 0 255 255 255 
-3.95991 -32.6466 26.5888 0 255 255 255 
-3.96092 -32.2411 25.6519 0 255 255 255 
-3.96192 -31.8357 24.7151 0 255 255 255 
-3.96292 -31.4303 23.7782 0 255 255 255 
-3.96392 -31.0249 22.8414 0 255 255 255 
-3.96492 -30.6195 21.9045 0 255 255 255 
-3.96593 -30.2141 20.9676 0 255 255 255 
-3.96693 -29.8087 20.0308 0 255 255 255 
-3.96793 -29.4033 19.0939 0 255 255 255 
-3.96893 -28.9978 18.157 0 255 255 255 
-3.96993 -28.5924 17.2202 0 255 255 255 
-3.97094 -28.187 16.2833 0 255 255 255 
-3.97194 -27.7816 15.3464 0 255 255 255 
-3.97294 -27.3762 14.4096 0 255 255 255 
-3.97394 -26.9708 13.4727 0 255 255 255 
-3.97494 -26.5654 12.5358 0 255 255 255 
-3.97595 -26.1599 11.599 0 255 255 255 
-3.97695 -25.7545 10.6621 0 255 255 255 
-3.97795 -25.3491 9.72525 0 255 255 255 
-3.97895 -24.9437 8.78838 0 255 255 255 
-3.97995 -24.5383 7.85152 0 255 255 255 
-3.98096 -24.1329 6.91465 0 255 255 255 
-3.98196 -23.7275 5.97779 0 255 255 255 
-3.98296 -23.322 5.04092 0 255 255 255 
-3.98396 -22.9166 4.10406 0 255 255 255 
-3.98496 -22.5112 3.1672 0 255 255 255 
-3.98597 -22.1058 2.23033 0 255 255 255 
-3.98697 -21.7004 1.29347 0 255 255 255 
-3.98797 -21.295 0.356601 0 255 255 255 
-3.98897 -20.8896 -0.580264 0 255 255 255 
-3.98997 -20.4841 -1.51713 0 255 255 255 
-3.99098 -20.0787 -2.45399 0 255 255 255 
-3.99198 -19.6733 -3.39086 0 255 255 255 
-3.99298 -19.2679 -4.32772 0 255 255 255 
-3.99398 -18.8625 -5.26459 0 255 255 255 
-3.99498 -18.4571 -6.20145 0 255 255 255 
-3.99599 -18.0517 -7.13832 0 255 255 255 
-3.99699 -17.6462 -8.07518 0 255 255 255 
-3.99799 -17.2408 -9.01205 0 255 255 255 
-3.99899 -16.8354 -9.94891 0 255 255 255 
-3.99999 -16.43 -10.8858 0 255 255 255 
-4.001 -16.0246 -11.8226 0 255 255 255 
-4.002 -15.6192 -12.7595 0 255 255 255 
-4.003 -15.2138 -13.6964 0 255 255 255 
-4.004 -14.8083 -14.6332 0 255 255 255 
-4.005 -14.4029 -15.5701 0 255 255 255 
-4.00601 -13.9975 -16.507 0 255 255 255 
-4.00701 -13.5921 -17.4438 0 255 255 255 
-4.00801 -13.1867 -18.3807 0 255 255 255 
-4.00901 -12.7813 -19.3176 0 255 255 255 
-4.01002 -12.3759 -20.2544 0 255 255 255 
-4.01102 -11.9705 -21.1913 0 255 255 255 
-4.01202 -11.565 -22.1282 0 255 255 255 
-4.01302 -11.1596 -23.065 0 255 255 255 
-4.01402 -10.7542 -24.0019 0 255 255 255 
-4.01503 -10.3488 -24.9387 0 255 255 255 
-4.01603 -9.94338 -25.8756 0 255 255 255 
-4.01703 -9.53797 -26.8125 0 255 255 255 
-4.01803 -9.13255 -27.7493 0 255 255 255 
-4.01903 -8.72714 -28.6862 0 255 255 255 
-4.02004 -8.32173 -29.6231 0 255 255 255 
-4.02104 -7.91631 -30.5599 0 255 255 255 
-4.02204 -7.5109 -31.4968 0 255 255 255 
-4.02304 -7.10548 -32.4337 0 255 255 255 
-4.02404 -6.70007 -33.3705 0 255 255 255 
-4.02505 -6.29466 -34.3074 0 255 255 255 
-4.02605 -5.88924 -35.2443 0 255 255 255 
-4.02705 -5.48383 -36.1811 0 255 255 255 
-4.02805 -5.07841 -37.118 0 255 255 255 
-4.02905 -4.673 -38.0549 0 255 255 255 
-4.03006 -4.26759 -38.9917 0 255 255 255 
-4.03106 -3.86217 -39.9286 0 255 255 255 
-4.03206 -3.45676 -40.8654 0 255 255 255 
-4.03306 -3.05135 -41.8023 0 255 255 255 
-4.03406 -2.64593 -42.7392 0 255 255 255 
-4.03507 -2.24052 -43.676 0 255 255 255 
-4.03607 -1.8351 -44.6129 0 255 255 255 
-4.03707 -1.42969 -45.5498 0 255 255 255 
-4.03807 -1.02428 -46.4866 0 255 255 255 
-4.03907 -0.618861 -47.4235 0 255 255 255 
-4.04008 -0.213447 -48.3604 0 255 255 255 
-4.04108 0.191966 -49.2972 0 255 255 255 
-4.04208 0.597381 -50.2341 0 255 255 255 
-4.04308 1.00279 -51.171 0 255 255 255 
-4.04408 1.40821 -52.1078 0 255 255 255 
-4.04509 1.81362 -53.0447 0 255 255 255 
-4.04609 2.21904 -53.9815 0 255 255 255 
-4.04709 2.62445 -54.9184 0 255 255 255 
-4.04809 3.02987 -55.8553 0 255 255 255 
-4.04909 3.43528 -56.7921 0 255 255 255 
-4.0501 3.84069 -57.729 0 255 255 255 
-4.0511 4.24611 -58.6659 0 255 255 255 
-4.0521 4.65152 -59.6027 0 255 255 255 
-4.0531 5.05693 -60.5396 0 255 255 255 
-4.0541 5.46235 -61.4765 0 255 255 255 
-4.05511 5.86776 -62.4133 0 255 255 255 
-4.05611 6.27318 -63.3502 0 255 255 255 
-4.05711 6.67859 -64.2871 0 255 255 255 
-4.05811 7.084 -65.2239 0 255 255 255 
-4.05911 7.48942 -66.1608 0 255 255 255 
-4.06012 7.89483 -67.0977 0 255 255 255 
-4.06112 8.30025 -68.0345 0 255 255 255 
-4.06212 8.70566 -68.9714 0 255 255 255 
-4.06312 9.11107 -69.9082 0 255 255 255 
-4.06412 9.51649 -70.8451 0 255 255 255 
-4.06513 9.9219 -71.782 0 255 255 255 
-4.06613 10.3273 -72.7188 0 255 255 255 
-4.06713 10.7327 -73.6557 0 255 255 255 
-4.06813 11.1381 -74.5926 0 255 255 255 
-4.06914 11.5436 -75.5294 0 255 255 255 
-4.07014 11.949 -76.4663 0 255 255 255 
-4.07114 12.3544 -77.4032 0 255 255 255 
-4.07214 12.7598 -78.34 0 255 255 255 
-4.07314 13.1652 -79.2769 0 255 255 255 
-4.07415 13.5706 -80.2138 0 255 255 255 
-4.07515 13.976 -81.1506 0 255 255 255 
-4.07615 14.3815 -82.0875 0 255 255 255 
-4.07715 14.7869 -83.0244 0 255 255 255 
-4.07815 15.1923 -83.9612 0 255 255 255 
-4.07916 15.5977 -84.8981 0 255 255 255 
-4.08016 16.0031 -85.8349 0 255 255 255 
-4.08116 16.4085 -86.7718 0 255 255 255 
-4.08216 16.8139 -87.7087 0 255 255 255 
-4.08316 17.2194 -88.6455 0 255 255 255 
-4.08417 17.6248 -89.5824 0 255 255 255 
-4.08517 18.0302 -90.5193 0 255 255 255 
-4.08617 18.4356 -91.4561 0 255 255 255 
-4.08717 18.841 -92.393 0 255 255 255 
-4.08817 19.2464 -93.3299 0 255 255 255 
-4.08918 19.6518 -94.2667 0 255 255 255 
-4.09018 20.0573 -95.2036 0 255 255 255 
-4.09118 20.4627 -96.1405 0 255 255 255 
-4.09218 20.8681 -97.0773 0 255 255 255 
-4.09318 21.2735 -98.0142 0 255 255 255 
-4.09419 21.6789 -98.9511 0 255 255 255 
-4.09519 22.0843 -99.8879 0 255 255 255 
-4.09619 22.4897 -100.825 0 255 255 255 
-4.09719 22.8951 -101.762 0 255 255 255 
-4.09819 23.3006 -102.699 0 255 255 255 
-4.0992 23.706 -103.635 0 255 255 255 
-4.1002 24.1114 -104.572 0 255 255 255 
-2.89979 -52.8537 85.6819 0 255 255 255 
-2.9008 -52.4482 84.745 0 255 255 255 
-2.9018 -52.0428 83.8082 0 255 255 255 
-2.9028 -51.6374 82.8713 0 255 255 255 
-2.9038 -51.232 81.9344 0 255 255 255 
-2.9048 -50.8266 80.9976 0 255 255 255 
-2.90581 -50.4212 80.0607 0 255 255 255 
-2.90681 -50.0158 79.1238 0 255 255 255 
-2.90781 -49.6103 78.187 0 255 255 255 
-2.90881 -49.2049 77.2501 0 255 255 255 
-2.90981 -48.7995 76.3132 0 255 255 255 
-2.91082 -48.3941 75.3764 0 255 255 255 
-2.91182 -47.9887 74.4395 0 255 255 255 
-2.91282 -47.5833 73.5026 0 255 255 255 
-2.91382 -47.1779 72.5658 0 255 255 255 
-2.91482 -46.7724 71.6289 0 255 255 255 
-2.91583 -46.367 70.692 0 255 255 255 
-2.91683 -45.9616 69.7552 0 255 255 255 
-2.91783 -45.5562 68.8183 0 255 255 255 
-2.91883 -45.1508 67.8815 0 255 255 255 
-2.91983 -44.7454 66.9446 0 255 255 255 
-2.92084 -44.34 66.0077 0 255 255 255 
-2.92184 -43.9346 65.0709 0 255 255 255 
-2.92284 -43.5291 64.134 0 255 255 255 
-2.92384 -43.1237 63.1971 0 255 255 255 
-2.92484 -42.7183 62.2603 0 255 255 255 
-2.92585 -42.3129 61.3234 0 255 255 255 
-2.92685 -41.9075 60.3865 0 255 255 255 
-2.92785 -41.5021 59.4497 0 255 255 255 
-2.92885 -41.0967 58.5128 0 255 255 255 
-2.92985 -40.6912 57.5759 0 255 255 255 
-2.93086 -40.2858 56.6391 0 255 255 255 
-2.93186 -39.8804 55.7022 0 255 255 255 
-2.93286 -39.475 54.7654 0 255 255 255 
-2.93386 -39.0696 53.8285 0 255 255 255 
-2.93486 -38.6642 52.8916 0 255 255 255 
-2.93587 -38.2588 51.9548 0 255 255 255 
-2.93687 -37.8533 51.0179 0 255 255 255 
-2.93787 -37.4479 50.081 0 255 255 255 
-2.93887 -37.0425 49.1442 0 255 255 255 
-2.93987 -36.6371 48.2073 0 255 255 255 
-2.94088 -36.2317 47.2704 0 255 255 255 
-2.94188 -35.8263 46.3336 0 255 255 255 
-2.94288 -35.4209 45.3967 0 255 255 255 
-2.94388 -35.0154 44.4598 0 255 255 255 
-2.94488 -34.61 43.523 0 255 255 255 
-2.94589 -34.2046 42.5861 0 255 255 255 
-2.94689 -33.7992 41.6492 0 255 255 255 
-2.94789 -33.3938 40.7124 0 255 255 255 
-2.94889 -32.9884 39.7755 0 255 255 255 
-2.94989 -32.583 38.8387 0 255 255 255 
-2.9509 -32.1775 37.9018 0 255 255 255 
-2.9519 -31.7721 36.9649 0 255 255 255 
-2.9529 -31.3667 36.0281 0 255 255 255 
-2.9539 -30.9613 35.0912 0 255 255 255 
-2.9549 -30.5559 34.1543 0 255 255 255 
-2.95591 -30.1505 33.2175 0 255 255 255 
-2.95691 -29.7451 32.2806 0 255 255 255 
-2.95791 -29.3396 31.3437 0 255 255 255 
-2.95891 -28.9342 30.4069 0 255 255 255 
-2.95991 -28.5288 29.47 0 255 255 255 
-2.96092 -28.1234 28.5331 0 255 255 255 
-2.96192 -27.718 27.5963 0 255 255 255 
-2.96292 -27.3126 26.6594 0 255 255 255 
-2.96392 -26.9072 25.7225 0 255 255 255 
-2.96493 -26.5018 24.7857 0 255 255 255 
-2.96593 -26.0963 23.8488 0 255 255 255 
-2.96693 -25.6909 22.912 0 255 255 255 
-2.96793 -25.2855 21.9751 0 255 255 255 
-2.96893 -24.8801 21.0382 0 255 255 255 
-2.96994 -24.4747 20.1014 0 255 255 255 
-2.97094 -24.0693 19.1645 0 255 255 255 
-2.97194 -23.6639 18.2276 0 255 255 255 
-2.97294 -23.2584 17.2908 0 255 255 255 
-2.97394 -22.853 16.3539 0 255 255 255 
-2.97495 -22.4476 15.417 0 255 255 255 
-2.97595 -22.0422 14.4802 0 255 255 255 
-2.97695 -21.6368 13.5433 0 255 255 255 
-2.97795 -21.2314 12.6064 0 255 255 255 
-2.97895 -20.826 11.6696 0 255 255 255 
-2.97996 -20.4205 10.7327 0 255 255 255 
-2.98096 -20.0151 9.79585 0 255 255 255 
-2.98196 -19.6097 8.85898 0 255 255 255 
-2.98296 -19.2043 7.92212 0 255 255 255 
-2.98396 -18.7989 6.98525 0 255 255 255 
-2.98497 -18.3935 6.04839 0 255 255 255 
-2.98597 -17.9881 5.11152 0 255 255 255 
-2.98697 -17.5826 4.17466 0 255 255 255 
-2.98797 -17.1772 3.23779 0 255 255 255 
-2.98897 -16.7718 2.30093 0 255 255 255 
-2.98998 -16.3664 1.36407 0 255 255 255 
-2.99098 -15.961 0.427201 0 255 255 255 
-2.99198 -15.5556 -0.509664 0 255 255 255 
-2.99298 -15.1502 -1.44653 0 255 255 255 
-2.99398 -14.7447 -2.38339 0 255 255 255 
-2.99499 -14.3393 -3.32026 0 255 255 255 
-2.99599 -13.9339 -4.25712 0 255 255 255 
-2.99699 -13.5285 -5.19399 0 255 255 255 
-2.99799 -13.1231 -6.13085 0 255 255 255 
-2.99899 -12.7177 -7.06772 0 255 255 255 
-3 -12.3123 -8.00458 0 255 255 255 
-3.001 -11.9068 -8.94145 0 255 255 255 
-3.002 -11.5014 -9.87831 0 255 255 255 
-3.003 -11.096 -10.8152 0 255 255 255 
-3.004 -10.6906 -11.752 0 255 255 255 
-3.00501 -10.2852 -12.6889 0 255 255 255 
-3.00601 -9.87978 -13.6258 0 255 255 255 
-3.00701 -9.47437 -14.5626 0 255 255 255 
-3.00801 -9.06895 -15.4995 0 255 255 255 
-3.00901 -8.66354 -16.4364 0 255 255 255 
-3.01002 -8.25812 -17.3732 0 255 255 255 
-3.01102 -7.85271 -18.3101 0 255 255 255 
-3.01202 -7.4473 -19.247 0 255 255 255 
-3.01302 -7.04188 -20.1838 0 255 255 255 
-3.01402 -6.63647 -21.1207 0 255 255 255 
-3.01503 -6.23105 -22.0576 0 255 255 255 
-3.01603 -5.82564 -22.9944 0 255 255 255 
-3.01703 -5.42023 -23.9313 0 255 255 255 
-3.01803 -5.01481 -24.8681 0 255 255 255 
-3.01903 -4.6094 -25.805 0 255 255 255 
-3.02004 -4.20398 -26.7419 0 255 255 255 
-3.02104 -3.79857 -27.6787 0 255 255 255 
-3.02204 -3.39316 -28.6156 0 255 255 255 
-3.02304 -2.98774 -29.5525 0 255 255 255 
-3.02404 -2.58233 -30.4893 0 255 255 255 
-3.02505 -2.17691 -31.4262 0 255 255 255 
-3.02605 -1.7715 -32.3631 0 255 255 255 
-3.02705 -1.36609 -33.2999 0 255 255 255 
-3.02805 -0.960673 -34.2368 0 255 255 255 
-3.02905 -0.555258 -35.1737 0 255 255 255 
-3.03006 -0.149846 -36.1105 0 255 255 255 
-3.03106 0.255569 -37.0474 0 255 255 255 
-3.03206 0.660983 -37.9842 0 255 255 255 
-3.03306 1.0664 -38.9211 0 255 255 255 
-3.03407 1.47181 -39.858 0 255 255 255 
-3.03507 1.87722 -40.7948 0 255 255 255 
-3.03607 2.28264 -41.7317 0 255 255 255 
-3.03707 2.68805 -42.6686 0 255 255 255 
-3.03807 3.09347 -43.6054 0 255 255 255 
-3.03908 3.49888 -44.5423 0 255 255 255 
-3.04008 3.90429 -45.4792 0 255 255 255 
-3.04108 4.30971 -46.416 0 255 255 255 
-3.04208 4.71512 -47.3529 0 255 255 255 
-3.04308 5.12054 -48.2898 0 255 255 255 
-3.04409 5.52595 -49.2266 0 255 255 255 
-3.04509 5.93137 -50.1635 0 255 255 255 
-3.04609 6.33678 -51.1004 0 255 255 255 
-3.04709 6.74219 -52.0372 0 255 255 255 
-3.04809 7.14761 -52.9741 0 255 255 255 
-3.0491 7.55302 -53.9109 0 255 255 255 
-3.0501 7.95843 -54.8478 0 255 255 255 
-3.0511 8.36385 -55.7847 0 255 255 255 
-3.0521 8.76926 -56.7215 0 255 255 255 
-3.0531 9.17468 -57.6584 0 255 255 255 
-3.05411 9.58009 -58.5953 0 255 255 255 
-3.05511 9.9855 -59.5321 0 255 255 255 
-3.05611 10.3909 -60.469 0 255 255 255 
-3.05711 10.7963 -61.4059 0 255 255 255 
-3.05811 11.2017 -62.3427 0 255 255 255 
-3.05912 11.6072 -63.2796 0 255 255 255 
-3.06012 12.0126 -64.2165 0 255 255 255 
-3.06112 12.418 -65.1533 0 255 255 255 
-3.06212 12.8234 -66.0902 0 255 255 255 
-3.06312 13.2288 -67.0271 0 255 255 255 
-3.06413 13.6342 -67.9639 0 255 255 255 
-3.06513 14.0396 -68.9008 0 255 255 255 
-3.06613 14.4451 -69.8376 0 255 255 255 
-3.06713 14.8505 -70.7745 0 255 255 255 
-3.06813 15.2559 -71.7114 0 255 255 255 
-3.06914 15.6613 -72.6482 0 255 255 255 
-3.07014 16.0667 -73.5851 0 255 255 255 
-3.07114 16.4721 -74.522 0 255 255 255 
-3.07214 16.8775 -75.4588 0 255 255 255 
-3.07314 17.283 -76.3957 0 255 255 255 
-3.07415 17.6884 -77.3326 0 255 255 255 
-3.07515 18.0938 -78.2694 0 255 255 255 
-3.07615 18.4992 -79.2063 0 255 255 255 
-3.07715 18.9046 -80.1432 0 255 255 255 
-3.07815 19.31 -81.08 0 255 255 255 
-3.07916 19.7154 -82.0169 0 255 255 255 
-3.08016 20.1209 -82.9538 0 255 255 255 
-3.08116 20.5263 -83.8906 0 255 255 255 
-3.08216 20.9317 -84.8275 0 255 255 255 
-3.08316 21.3371 -85.7644 0 255 255 255 
-3.08417 21.7425 -86.7012 0 255 255 255 
-3.08517 22.1479 -87.6381 0 255 255 255 
-3.08617 22.5533 -88.5749 0 255 255 255 
-3.08717 22.9587 -89.5118 0 255 255 255 
-3.08817 23.3642 -90.4487 0 255 255 255 
-3.08918 23.7696 -91.3855 0 255 255 255 
-3.09018 24.175 -92.3224 0 255 255 255 
-3.09118 24.5804 -93.2593 0 255 255 255 
-3.09218 24.9858 -94.1961 0 255 255 255 
-3.09318 25.3912 -95.133 0 255 255 255 
-3.09419 25.7966 -96.0699 0 255 255 255 
-3.09519 26.2021 -97.0067 0 255 255 255 
-3.09619 26.6075 -97.9436 0 255 255 255 
-3.09719 27.0129 -98.8805 0 255 255 255 
-3.09819 27.4183 -99.8173 0 255 255 255 
-3.0992 27.8237 -100.754 0 255 255 255 
-3.1002 28.2291 -101.691 0 255 255 255 
-1.89979 -48.7359 88.5631 0 255 255 255 
-1.9008 -48.3305 87.6262 0 255 255 255 
-1.9018 -47.9251 86.6893 0 255 255 255 
-1.9028 -47.5197 85.7525 0 255 255 255 
-1.9038 -47.1143 84.8156 0 255 255 255 
-1.9048 -46.7088 83.8788 0 255 255 255 
-1.90581 -46.3034 82.9419 0 255 255 255 
-1.90681 -45.898 82.005 0 255 255 255 
-1.90781 -45.4926 81.0682 0 255 255 255 
-1.90881 -45.0872 80.1313 0 255 255 255 
-1.90981 -44.6818 79.1944 0 255 255 255 
-1.91082 -44.2764 78.2576 0 255 255 255 
-1.91182 -43.8709 77.3207 0 255 255 255 
-1.91282 -43.4655 76.3838 0 255 255 255 
-1.91382 -43.0601 75.447 0 255 255 255 
-1.91482 -42.6547 74.5101 0 255 255 255 
-1.91583 -42.2493 73.5732 0 255 255 255 
-1.91683 -41.8439 72.6364 0 255 255 255 
-1.91783 -41.4385 71.6995 0 255 255 255 
-1.91883 -41.0331 70.7626 0 255 255 255 
-1.91983 -40.6276 69.8258 0 255 255 255 
-1.92084 -40.2222 68.8889 0 255 255 255 
-1.92184 -39.8168 67.9521 0 255 255 255 
-1.92284 -39.4114 67.0152 0 255 255 255 
-1.92384 -39.006 66.0783 0 255 255 255 
-1.92484 -38.6006 65.1415 0 255 255 255 
-1.92585 -38.1952 64.2046 0 255 255 255 
-1.92685 -37.7897 63.2677 0 255 255 255 
-1.92785 -37.3843 62.3309 0 255 255 255 
-1.92885 -36.9789 61.394 0 255 255 255 
-1.92985 -36.5735 60.4571 0 255 255 255 
-1.93086 -36.1681 59.5203 0 255 255 255 
-1.93186 -35.7627 58.5834 0 255 255 255 
-1.93286 -35.3573 57.6465 0 255 255 255 
-1.93386 -34.9518 56.7097 0 255 255 255 
-1.93487 -34.5464 55.7728 0 255 255 255 
-1.93587 -34.141 54.836 0 255 255 255 
-1.93687 -33.7356 53.8991 0 255 255 255 
-1.93787 -33.3302 52.9622 0 255 255 255 
-1.93887 -32.9248 52.0254 0 255 255 255 
-1.93988 -32.5194 51.0885 0 255 255 255 
-1.94088 -32.1139 50.1516 0 255 255 255 
-1.94188 -31.7085 49.2148 0 255 255 255 
-1.94288 -31.3031 48.2779 0 255 255 255 
-1.94388 -30.8977 47.341 0 255 255 255 
-1.94489 -30.4923 46.4042 0 255 255 255 
-1.94589 -30.0869 45.4673 0 255 255 255 
-1.94689 -29.6815 44.5304 0 255 255 255 
-1.94789 -29.276 43.5936 0 255 255 255 
-1.94889 -28.8706 42.6567 0 255 255 255 
-1.9499 -28.4652 41.7198 0 255 255 255 
-1.9509 -28.0598 40.783 0 255 255 255 
-1.9519 -27.6544 39.8461 0 255 255 255 
-1.9529 -27.249 38.9093 0 255 255 255 
-1.9539 -26.8436 37.9724 0 255 255 255 
-1.95491 -26.4381 37.0355 0 255 255 255 
-1.95591 -26.0327 36.0987 0 255 255 255 
-1.95691 -25.6273 35.1618 0 255 255 255 
-1.95791 -25.2219 34.2249 0 255 255 255 
-1.95891 -24.8165 33.2881 0 255 255 255 
-1.95992 -24.4111 32.3512 0 255 255 255 
-1.96092 -24.0057 31.4143 0 255 255 255 
-1.96192 -23.6003 30.4775 0 255 255 255 
-1.96292 -23.1948 29.5406 0 255 255 255 
-1.96392 -22.7894 28.6037 0 255 255 255 
-1.96493 -22.384 27.6669 0 255 255 255 
-1.96593 -21.9786 26.73 0 255 255 255 
-1.96693 -21.5732 25.7931 0 255 255 255 
-1.96793 -21.1678 24.8563 0 255 255 255 
-1.96893 -20.7624 23.9194 0 255 255 255 
-1.96994 -20.3569 22.9826 0 255 255 255 
-1.97094 -19.9515 22.0457 0 255 255 255 
-1.97194 -19.5461 21.1088 0 255 255 255 
-1.97294 -19.1407 20.172 0 255 255 255 
-1.97394 -18.7353 19.2351 0 255 255 255 
-1.97495 -18.3299 18.2982 0 255 255 255 
-1.97595 -17.9245 17.3614 0 255 255 255 
-1.97695 -17.519 16.4245 0 255 255 255 
-1.97795 -17.1136 15.4876 0 255 255 255 
-1.97895 -16.7082 14.5508 0 255 255 255 
-1.97996 -16.3028 13.6139 0 255 255 255 
-1.98096 -15.8974 12.677 0 255 255 255 
-1.98196 -15.492 11.7402 0 255 255 255 
-1.98296 -15.0866 10.8033 0 255 255 255 
-1.98396 -14.6811 9.86645 0 255 255 255 
-1.98497 -14.2757 8.92958 0 255 255 255 
-1.98597 -13.8703 7.99272 0 255 255 255 
-1.98697 -13.4649 7.05585 0 255 255 255 
-1.98797 -13.0595 6.11899 0 255 255 255 
-1.98897 -12.6541 5.18212 0 255 255 255 
-1.98998 -12.2487 4.24526 0 255 255 255 
-1.99098 -11.8432 3.30839 0 255 255 255 
-1.99198 -11.4378 2.37153 0 255 255 255 
-1.99298 -11.0324 1.43467 0 255 255 255 
-1.99398 -10.627 0.497801 0 255 255 255 
-1.99499 -10.2216 -0.439064 0 255 255 255 
-1.99599 -9.81618 -1.37593 0 255 255 255 
-1.99699 -9.41076 -2.31279 0 255 255 255 
-1.99799 -9.00535 -3.24966 0 255 255 255 
-1.99899 -8.59994 -4.18652 0 255 255 255 
-2 -8.19452 -5.12339 0 255 255 255 
-2.001 -7.78911 -6.06025 0 255 255 255 
-2.002 -7.38369 -6.99712 0 255 255 255 
-2.003 -6.97828 -7.93398 0 255 255 255 
-2.00401 -6.57287 -8.87085 0 255 255 255 
-2.00501 -6.16745 -9.80771 0 255 255 255 
-2.00601 -5.76204 -10.7446 0 255 255 255 
-2.00701 -5.35662 -11.6814 0 255 255 255 
-2.00801 -4.95121 -12.6183 0 255 255 255 
-2.00902 -4.5458 -13.5552 0 255 255 255 
-2.01002 -4.14038 -14.492 0 255 255 255 
-2.01102 -3.73497 -15.4289 0 255 255 255 
-2.01202 -3.32955 -16.3658 0 255 255 255 
-2.01302 -2.92414 -17.3026 0 255 255 255 
-2.01403 -2.51873 -18.2395 0 255 255 255 
-2.01503 -2.11331 -19.1764 0 255 255 255 
-2.01603 -1.7079 -20.1132 0 255 255 255 
-2.01703 -1.30248 -21.0501 0 255 255 255 
-2.01803 -0.89707 -21.9869 0 255 255 255 
-2.01904 -0.491657 -22.9238 0 255 255 255 
-2.02004 -0.0862424 -23.8607 0 255 255 255 
-2.02104 0.319171 -24.7975 0 255 255 255 
-2.02204 0.724586 -25.7344 0 255 255 255 
-2.02304 1.13 -26.6713 0 255 255 255 
-2.02405 1.53541 -27.6081 0 255 255 255 
-2.02505 1.94083 -28.545 0 255 255 255 
-2.02605 2.34624 -29.4819 0 255 255 255 
-2.02705 2.75165 -30.4187 0 255 255 255 
-2.02805 3.15707 -31.3556 0 255 255 255 
-2.02906 3.56248 -32.2925 0 255 255 255 
-2.03006 3.9679 -33.2293 0 255 255 255 
-2.03106 4.37331 -34.1662 0 255 255 255 
-2.03206 4.77872 -35.1031 0 255 255 255 
-2.03306 5.18414 -36.0399 0 255 255 255 
-2.03407 5.58955 -36.9768 0 255 255 255 
-2.03507 5.99497 -37.9137 0 255 255 255 
-2.03607 6.40038 -38.8505 0 255 255 255 
-2.03707 6.80579 -39.7874 0 255 255 255 
-2.03807 7.21121 -40.7242 0 255 255 255 
-2.03908 7.61662 -41.6611 0 255 255 255 
-2.04008 8.02204 -42.598 0 255 255 255 
-2.04108 8.42745 -43.5348 0 255 255 255 
-2.04208 8.83286 -44.4717 0 255 255 255 
-2.04308 9.23828 -45.4086 0 255 255 255 
-2.04409 9.64369 -46.3454 0 255 255 255 
-2.04509 10.0491 -47.2823 0 255 255 255 
-2.04609 10.4545 -48.2192 0 255 255 255 
-2.04709 10.8599 -49.156 0 255 255 255 
-2.04809 11.2653 -50.0929 0 255 255 255 
-2.0491 11.6708 -51.0298 0 255 255 255 
-2.0501 12.0762 -51.9666 0 255 255 255 
-2.0511 12.4816 -52.9035 0 255 255 255 
-2.0521 12.887 -53.8404 0 255 255 255 
-2.0531 13.2924 -54.7772 0 255 255 255 
-2.05411 13.6978 -55.7141 0 255 255 255 
-2.05511 14.1032 -56.6509 0 255 255 255 
-2.05611 14.5087 -57.5878 0 255 255 255 
-2.05711 14.9141 -58.5247 0 255 255 255 
-2.05811 15.3195 -59.4615 0 255 255 255 
-2.05912 15.7249 -60.3984 0 255 255 255 
-2.06012 16.1303 -61.3353 0 255 255 255 
-2.06112 16.5357 -62.2721 0 255 255 255 
-2.06212 16.9411 -63.209 0 255 255 255 
-2.06312 17.3466 -64.1459 0 255 255 255 
-2.06413 17.752 -65.0827 0 255 255 255 
-2.06513 18.1574 -66.0196 0 255 255 255 
-2.06613 18.5628 -66.9565 0 255 255 255 
-2.06713 18.9682 -67.8933 0 255 255 255 
-2.06814 19.3736 -68.8302 0 255 255 255 
-2.06914 19.779 -69.7671 0 255 255 255 
-2.07014 20.1845 -70.7039 0 255 255 255 
-2.07114 20.5899 -71.6408 0 255 255 255 
-2.07214 20.9953 -72.5776 0 255 255 255 
-2.07315 21.4007 -73.5145 0 255 255 255 
-2.07415 21.8061 -74.4514 0 255 255 255 
-2.07515 22.2115 -75.3882 0 255 255 255 
-2.07615 22.6169 -76.3251 0 255 255 255 
-2.07715 23.0224 -77.262 0 255 255 255 
-2.07816 23.4278 -78.1988 0 255 255 255 
-2.07916 23.8332 -79.1357 0 255 255 255 
-2.08016 24.2386 -80.0726 0 255 255 255 
-2.08116 24.644 -81.0094 0 255 255 255 
-2.08216 25.0494 -81.9463 0 255 255 255 
-2.08317 25.4548 -82.8832 0 255 255 255 
-2.08417 25.8603 -83.82 0 255 255 255 
-2.08517 26.2657 -84.7569 0 255 255 255 
-2.08617 26.6711 -85.6937 0 255 255 255 
-2.08717 27.0765 -86.6306 0 255 255 255 
-2.08818 27.4819 -87.5675 0 255 255 255 
-2.08918 27.8873 -88.5043 0 255 255 255 
-2.09018 28.2927 -89.4412 0 255 255 255 
-2.09118 28.6981 -90.3781 0 255 255 255 
-2.09218 29.1036 -91.3149 0 255 255 255 
-2.09319 29.509 -92.2518 0 255 255 255 
-2.09419 29.9144 -93.1887 0 255 255 255 
-2.09519 30.3198 -94.1255 0 255 255 255 
-2.09619 30.7252 -95.0624 0 255 255 255 
-2.09719 31.1306 -95.9993 0 255 255 255 
-2.0982 31.536 -96.9361 0 255 255 255 
-2.0992 31.9415 -97.873 0 255 255 255 
-2.1002 32.3469 -98.8099 0 255 255 255 
-0.899795 -44.6182 91.4443 0 255 255 255 
-0.900797 -44.2128 90.5074 0 255 255 255 
-0.901799 -43.8073 89.5705 0 255 255 255 
-0.902801 -43.4019 88.6337 0 255 255 255 
-0.903803 -42.9965 87.6968 0 255 255 255 
-0.904805 -42.5911 86.7599 0 255 255 255 
-0.905807 -42.1857 85.8231 0 255 255 255 
-0.906809 -41.7803 84.8862 0 255 255 255 
-0.907811 -41.3749 83.9494 0 255 255 255 
-0.908813 -40.9694 83.0125 0 255 255 255 
-0.909815 -40.564 82.0756 0 255 255 255 
-0.910817 -40.1586 81.1388 0 255 255 255 
-0.911819 -39.7532 80.2019 0 255 255 255 
-0.912821 -39.3478 79.265 0 255 255 255 
-0.913823 -38.9424 78.3282 0 255 255 255 
-0.914825 -38.537 77.3913 0 255 255 255 
-0.915828 -38.1315 76.4544 0 255 255 255 
-0.91683 -37.7261 75.5176 0 255 255 255 
-0.917832 -37.3207 74.5807 0 255 255 255 
-0.918834 -36.9153 73.6438 0 255 255 255 
-0.919836 -36.5099 72.707 0 255 255 255 
-0.920838 -36.1045 71.7701 0 255 255 255 
-0.92184 -35.6991 70.8333 0 255 255 255 
-0.922842 -35.2937 69.8964 0 255 255 255 
-0.923844 -34.8882 68.9595 0 255 255 255 
-0.924846 -34.4828 68.0227 0 255 255 255 
-0.925848 -34.0774 67.0858 0 255 255 255 
-0.92685 -33.672 66.1489 0 255 255 255 
-0.927852 -33.2666 65.2121 0 255 255 255 
-0.928854 -32.8612 64.2752 0 255 255 255 
-0.929856 -32.4558 63.3383 0 255 255 255 
-0.930858 -32.0503 62.4015 0 255 255 255 
-0.93186 -31.6449 61.4646 0 255 255 255 
-0.932862 -31.2395 60.5277 0 255 255 255 
-0.933864 -30.8341 59.5909 0 255 255 255 
-0.934866 -30.4287 58.654 0 255 255 255 
-0.935868 -30.0233 57.7171 0 255 255 255 
-0.93687 -29.6179 56.7803 0 255 255 255 
-0.937872 -29.2124 55.8434 0 255 255 255 
-0.938874 -28.807 54.9066 0 255 255 255 
-0.939876 -28.4016 53.9697 0 255 255 255 
-0.940878 -27.9962 53.0328 0 255 255 255 
-0.94188 -27.5908 52.096 0 255 255 255 
-0.942882 -27.1854 51.1591 0 255 255 255 
-0.943884 -26.78 50.2222 0 255 255 255 
-0.944886 -26.3745 49.2854 0 255 255 255 
-0.945888 -25.9691 48.3485 0 255 255 255 
-0.94689 -25.5637 47.4116 0 255 255 255 
-0.947892 -25.1583 46.4748 0 255 255 255 
-0.948895 -24.7529 45.5379 0 255 255 255 
-0.949897 -24.3475 44.601 0 255 255 255 
-0.950899 -23.9421 43.6642 0 255 255 255 
-0.951901 -23.5366 42.7273 0 255 255 255 
-0.952903 -23.1312 41.7904 0 255 255 255 
-0.953905 -22.7258 40.8536 0 255 255 255 
-0.954907 -22.3204 39.9167 0 255 255 255 
-0.955909 -21.915 38.9799 0 255 255 255 
-0.956911 -21.5096 38.043 0 255 255 255 
-0.957913 -21.1042 37.1061 0 255 255 255 
-0.958915 -20.6988 36.1693 0 255 255 255 
-0.959917 -20.2933 35.2324 0 255 255 255 
-0.960919 -19.8879 34.2955 0 255 255 255 
-0.961921 -19.4825 33.3587 0 255 255 255 
-0.962923 -19.0771 32.4218 0 255 255 255 
-0.963925 -18.6717 31.4849 0 255 255 255 
-0.964927 -18.2663 30.5481 0 255 255 255 
-0.965929 -17.8609 29.6112 0 255 255 255 
-0.966931 -17.4554 28.6743 0 255 255 255 
-0.967933 -17.05 27.7375 0 255 255 255 
-0.968935 -16.6446 26.8006 0 255 255 255 
-0.969937 -16.2392 25.8637 0 255 255 255 
-0.970939 -15.8338 24.9269 0 255 255 255 
-0.971941 -15.4284 23.99 0 255 255 255 
-0.972943 -15.023 23.0532 0 255 255 255 
-0.973945 -14.6175 22.1163 0 255 255 255 
-0.974947 -14.2121 21.1794 0 255 255 255 
-0.975949 -13.8067 20.2426 0 255 255 255 
-0.976951 -13.4013 19.3057 0 255 255 255 
-0.977953 -12.9959 18.3688 0 255 255 255 
-0.978955 -12.5905 17.432 0 255 255 255 
-0.979957 -12.1851 16.4951 0 255 255 255 
-0.980959 -11.7796 15.5582 0 255 255 255 
-0.981961 -11.3742 14.6214 0 255 255 255 
-0.982964 -10.9688 13.6845 0 255 255 255 
-0.983966 -10.5634 12.7476 0 255 255 255 
-0.984968 -10.158 11.8108 0 255 255 255 
-0.98597 -9.75257 10.8739 0 255 255 255 
-0.986972 -9.34716 9.93705 0 255 255 255 
-0.987974 -8.94175 9.00018 0 255 255 255 
-0.988976 -8.53633 8.06332 0 255 255 255 
-0.989978 -8.13092 7.12645 0 255 255 255 
-0.99098 -7.72551 6.18959 0 255 255 255 
-0.991982 -7.32009 5.25272 0 255 255 255 
-0.992984 -6.91468 4.31586 0 255 255 255 
-0.993986 -6.50926 3.37899 0 255 255 255 
-0.994988 -6.10385 2.44213 0 255 255 255 
-0.99599 -5.69844 1.50527 0 255 255 255 
-0.996992 -5.29302 0.568401 0 255 255 255 
-0.997994 -4.88761 -0.368464 0 255 255 255 
-0.998996 -4.48219 -1.30533 0 255 255 255 
-0.999998 -4.07678 -2.24219 0 255 255 255 
-1.001 -3.67137 -3.17906 0 255 255 255 
-1.002 -3.26595 -4.11592 0 255 255 255 
-1.003 -2.86054 -5.05279 0 255 255 255 
-1.00401 -2.45512 -5.98965 0 255 255 255 
-1.00501 -2.04971 -6.92652 0 255 255 255 
-1.00601 -1.6443 -7.86338 0 255 255 255 
-1.00701 -1.23888 -8.80025 0 255 255 255 
-1.00801 -0.833468 -9.73711 0 255 255 255 
-1.00902 -0.428054 -10.674 0 255 255 255 
-1.01002 -0.0226403 -11.6108 0 255 255 255 
-1.01102 0.382774 -12.5477 0 255 255 255 
-1.01202 0.788188 -13.4846 0 255 255 255 
-1.01302 1.1936 -14.4214 0 255 255 255 
-1.01403 1.59902 -15.3583 0 255 255 255 
-1.01503 2.00443 -16.2952 0 255 255 255 
-1.01603 2.40984 -17.232 0 255 255 255 
-1.01703 2.81526 -18.1689 0 255 255 255 
-1.01803 3.22067 -19.1058 0 255 255 255 
-1.01904 3.62609 -20.0426 0 255 255 255 
-1.02004 4.0315 -20.9795 0 255 255 255 
-1.02104 4.43691 -21.9164 0 255 255 255 
-1.02204 4.84233 -22.8532 0 255 255 255 
-1.02304 5.24774 -23.7901 0 255 255 255 
-1.02405 5.65315 -24.7269 0 255 255 255 
-1.02505 6.05857 -25.6638 0 255 255 255 
-1.02605 6.46398 -26.6007 0 255 255 255 
-1.02705 6.8694 -27.5375 0 255 255 255 
-1.02805 7.27481 -28.4744 0 255 255 255 
-1.02906 7.68022 -29.4113 0 255 255 255 
-1.03006 8.08564 -30.3481 0 255 255 255 
-1.03106 8.49105 -31.285 0 255 255 255 
-1.03206 8.89647 -32.2219 0 255 255 255 
-1.03306 9.30188 -33.1587 0 255 255 255 
-1.03407 9.70729 -34.0956 0 255 255 255 
-1.03507 10.1127 -35.0325 0 255 255 255 
-1.03607 10.5181 -35.9693 0 255 255 255 
-1.03707 10.9235 -36.9062 0 255 255 255 
-1.03808 11.3289 -37.843 0 255 255 255 
-1.03908 11.7344 -38.7799 0 255 255 255 
-1.04008 12.1398 -39.7168 0 255 255 255 
-1.04108 12.5452 -40.6536 0 255 255 255 
-1.04208 12.9506 -41.5905 0 255 255 255 
-1.04309 13.356 -42.5274 0 255 255 255 
-1.04409 13.7614 -43.4642 0 255 255 255 
-1.04509 14.1668 -44.4011 0 255 255 255 
-1.04609 14.5723 -45.338 0 255 255 255 
-1.04709 14.9777 -46.2748 0 255 255 255 
-1.0481 15.3831 -47.2117 0 255 255 255 
-1.0491 15.7885 -48.1486 0 255 255 255 
-1.0501 16.1939 -49.0854 0 255 255 255 
-1.0511 16.5993 -50.0223 0 255 255 255 
-1.0521 17.0047 -50.9592 0 255 255 255 
-1.05311 17.4102 -51.896 0 255 255 255 
-1.05411 17.8156 -52.8329 0 255 255 255 
-1.05511 18.221 -53.7697 0 255 255 255 
-1.05611 18.6264 -54.7066 0 255 255 255 
-1.05711 19.0318 -55.6435 0 255 255 255 
-1.05812 19.4372 -56.5803 0 255 255 255 
-1.05912 19.8426 -57.5172 0 255 255 255 
-1.06012 20.2481 -58.4541 0 255 255 255 
-1.06112 20.6535 -59.3909 0 255 255 255 
-1.06212 21.0589 -60.3278 0 255 255 255 
-1.06313 21.4643 -61.2647 0 255 255 255 
-1.06413 21.8697 -62.2015 0 255 255 255 
-1.06513 22.2751 -63.1384 0 255 255 255 
-1.06613 22.6805 -64.0753 0 255 255 255 
-1.06713 23.086 -65.0121 0 255 255 255 
-1.06814 23.4914 -65.949 0 255 255 255 
-1.06914 23.8968 -66.8859 0 255 255 255 
-1.07014 24.3022 -67.8227 0 255 255 255 
-1.07114 24.7076 -68.7596 0 255 255 255 
-1.07214 25.113 -69.6964 0 255 255 255 
-1.07315 25.5184 -70.6333 0 255 255 255 
-1.07415 25.9239 -71.5702 0 255 255 255 
-1.07515 26.3293 -72.507 0 255 255 255 
-1.07615 26.7347 -73.4439 0 255 255 255 
-1.07715 27.1401 -74.3808 0 255 255 255 
-1.07816 27.5455 -75.3176 0 255 255 255 
-1.07916 27.9509 -76.2545 0 255 255 255 
-1.08016 28.3563 -77.1914 0 255 255 255 
-1.08116 28.7617 -78.1282 0 255 255 255 
-1.08216 29.1672 -79.0651 0 255 255 255 
-1.08317 29.5726 -80.002 0 255 255 255 
-1.08417 29.978 -80.9388 0 255 255 255 
-1.08517 30.3834 -81.8757 0 255 255 255 
-1.08617 30.7888 -82.8126 0 255 255 255 
-1.08717 31.1942 -83.7494 0 255 255 255 
-1.08818 31.5996 -84.6863 0 255 255 255 
-1.08918 32.0051 -85.6231 0 255 255 255 
-1.09018 32.4105 -86.56 0 255 255 255 
-1.09118 32.8159 -87.4969 0 255 255 255 
-1.09218 33.2213 -88.4337 0 255 255 255 
-1.09319 33.6267 -89.3706 0 255 255 255 
-1.09419 34.0321 -90.3075 0 255 255 255 
-1.09519 34.4375 -91.2443 0 255 255 255 
-1.09619 34.843 -92.1812 0 255 255 255 
-1.09719 35.2484 -93.1181 0 255 255 255 
-1.0982 35.6538 -94.0549 0 255 255 255 
-1.0992 36.0592 -94.9918 0 255 255 255 
-1.1002 36.4646 -95.9287 0 255 255 255 
0.100204 -40.5004 94.3255 0 255 255 255 
0.0992019 -40.095 93.3886 0 255 255 255 
0.0981998 -39.6896 92.4517 0 255 255 255 
0.0971978 -39.2842 91.5149 0 255 255 255 
0.0961958 -38.8788 90.578 0 255 255 255 
0.0951938 -38.4734 89.6411 0 255 255 255 
0.0941917 -38.0679 88.7043 0 255 255 255 
0.0931897 -37.6625 87.7674 0 255 255 255 
0.0921877 -37.2571 86.8306 0 255 255 255 
0.0911856 -36.8517 85.8937 0 255 255 255 
0.0901836 -36.4463 84.9568 0 255 255 255 
0.0891816 -36.0409 84.02 0 255 255 255 
0.0881796 -35.6355 83.0831 0 255 255 255 
0.0871775 -35.2301 82.1462 0 255 255 255 
0.0861755 -34.8246 81.2094 0 255 255 255 
0.0851735 -34.4192 80.2725 0 255 255 255 
0.0841714 -34.0138 79.3356 0 255 255 255 
0.0831694 -33.6084 78.3988 0 255 255 255 
0.0821674 -33.203 77.4619 0 255 255 255 
0.0811654 -32.7976 76.525 0 255 255 255 
0.0801633 -32.3922 75.5882 0 255 255 255 
0.0791613 -31.9867 74.6513 0 255 255 255 
0.0781593 -31.5813 73.7144 0 255 255 255 
0.0771572 -31.1759 72.7776 0 255 255 255 
0.0761552 -30.7705 71.8407 0 255 255 255 
0.0751532 -30.3651 70.9038 0 255 255 255 
0.0741512 -29.9597 69.967 0 255 255 255 
0.0731491 -29.5543 69.0301 0 255 255 255 
0.0721471 -29.1488 68.0933 0 255 255 255 
0.0711451 -28.7434 67.1564 0 255 255 255 
0.070143 -28.338 66.2195 0 255 255 255 
0.069141 -27.9326 65.2827 0 255 255 255 
0.068139 -27.5272 64.3458 0 255 255 255 
0.067137 -27.1218 63.4089 0 255 255 255 
0.0661349 -26.7164 62.4721 0 255 255 255 
0.0651329 -26.3109 61.5352 0 255 255 255 
0.0641309 -25.9055 60.5983 0 255 255 255 
0.0631288 -25.5001 59.6615 0 255 255 255 
0.0621268 -25.0947 58.7246 0 255 255 255 
0.0611248 -24.6893 57.7877 0 255 255 255 
0.0601228 -24.2839 56.8509 0 255 255 255 
0.0591207 -23.8785 55.914 0 255 255 255 
0.0581187 -23.473 54.9771 0 255 255 255 
0.0571167 -23.0676 54.0403 0 255 255 255 
0.0561146 -22.6622 53.1034 0 255 255 255 
0.0551126 -22.2568 52.1666 0 255 255 255 
0.0541106 -21.8514 51.2297 0 255 255 255 
0.0531085 -21.446 50.2928 0 255 255 255 
0.0521065 -21.0406 49.356 0 255 255 255 
0.0511045 -20.6351 48.4191 0 255 255 255 
0.0501025 -20.2297 47.4822 0 255 255 255 
0.0491004 -19.8243 46.5454 0 255 255 255 
0.0480984 -19.4189 45.6085 0 255 255 255 
0.0470964 -19.0135 44.6716 0 255 255 255 
0.0460943 -18.6081 43.7348 0 255 255 255 
0.0450923 -18.2027 42.7979 0 255 255 255 
0.0440903 -17.7973 41.861 0 255 255 255 
0.0430883 -17.3918 40.9242 0 255 255 255 
0.0420862 -16.9864 39.9873 0 255 255 255 
0.0410842 -16.581 39.0505 0 255 255 255 
0.0400822 -16.1756 38.1136 0 255 255 255 
0.0390801 -15.7702 37.1767 0 255 255 255 
0.0380781 -15.3648 36.2399 0 255 255 255 
0.0370761 -14.9594 35.303 0 255 255 255 
0.0360741 -14.5539 34.3661 0 255 255 255 
0.035072 -14.1485 33.4293 0 255 255 255 
0.03407 -13.7431 32.4924 0 255 255 255 
0.033068 -13.3377 31.5555 0 255 255 255 
0.0320659 -12.9323 30.6187 0 255 255 255 
0.0310639 -12.5269 29.6818 0 255 255 255 
0.0300619 -12.1215 28.7449 0 255 255 255 
0.0290599 -11.716 27.8081 0 255 255 255 
0.0280578 -11.3106 26.8712 0 255 255 255 
0.0270558 -10.9052 25.9343 0 255 255 255 
0.0260538 -10.4998 24.9975 0 255 255 255 
0.0250517 -10.0944 24.0606 0 255 255 255 
0.0240497 -9.68897 23.1238 0 255 255 255 
0.0230477 -9.28356 22.1869 0 255 255 255 
0.0220457 -8.87814 21.25 0 255 255 255 
0.0210436 -8.47273 20.3132 0 255 255 255 
0.0200416 -8.06732 19.3763 0 255 255 255 
0.0190396 -7.6619 18.4394 0 255 255 255 
0.0180375 -7.25649 17.5026 0 255 255 255 
0.0170355 -6.85108 16.5657 0 255 255 255 
0.0160335 -6.44566 15.6288 0 255 255 255 
0.0150314 -6.04025 14.692 0 255 255 255 
0.0140294 -5.63483 13.7551 0 255 255 255 
0.0130274 -5.22942 12.8182 0 255 255 255 
0.0120254 -4.82401 11.8814 0 255 255 255 
0.0110233 -4.41859 10.9445 0 255 255 255 
0.0100213 -4.01318 10.0076 0 255 255 255 
0.00901928 -3.60776 9.07078 0 255 255 255 
0.00801725 -3.20235 8.13392 0 255 255 255 
0.00701522 -2.79694 7.19705 0 255 255 255 
0.00601319 -2.39152 6.26019 0 255 255 255 
0.00501116 -1.98611 5.32332 0 255 255 255 
0.00400913 -1.58069 4.38646 0 255 255 255 
0.0030071 -1.17528 3.44959 0 255 255 255 
0.00200507 -0.769866 2.51273 0 255 255 255 
0.00100304 -0.364452 1.57587 0 255 255 255 
1.01498e-06 0.0409618 0.639001 0 255 255 255 
-0.00100101 0.446376 -0.297864 0 255 255 255 
-0.00200304 0.85179 -1.23473 0 255 255 255 
-0.00300507 1.2572 -2.17159 0 255 255 255 
-0.0040071 1.66262 -3.10846 0 255 255 255 
-0.00500913 2.06803 -4.04532 0 255 255 255 
-0.00601116 2.47345 -4.98219 0 255 255 255 
-0.00701319 2.87886 -5.91905 0 255 255 255 
-0.00801522 3.28427 -6.85592 0 255 255 255 
-0.00901724 3.68969 -7.79278 0 255 255 255 
-0.0100193 4.0951 -8.72965 0 255 255 255 
-0.0110213 4.50051 -9.66651 0 255 255 255 
-0.0120233 4.90593 -10.6034 0 255 255 255 
-0.0130254 5.31134 -11.5402 0 255 255 255 
-0.0140274 5.71676 -12.4771 0 255 255 255 
-0.0150294 6.12217 -13.414 0 255 255 255 
-0.0160314 6.52759 -14.3508 0 255 255 255 
-0.0170335 6.933 -15.2877 0 255 255 255 
-0.0180355 7.33841 -16.2246 0 255 255 255 
-0.0190375 7.74383 -17.1614 0 255 255 255 
-0.0200396 8.14924 -18.0983 0 255 255 255 
-0.0210416 8.55465 -19.0352 0 255 255 255 
-0.0220436 8.96007 -19.972 0 255 255 255 
-0.0230456 9.36548 -20.9089 0 255 255 255 
-0.0240477 9.7709 -21.8458 0 255 255 255 
-0.0250497 10.1763 -22.7826 0 255 255 255 
-0.0260517 10.5817 -23.7195 0 255 255 255 
-0.0270538 10.9871 -24.6563 0 255 255 255 
-0.0280558 11.3926 -25.5932 0 255 255 255 
-0.0290578 11.798 -26.5301 0 255 255 255 
-0.0300599 12.2034 -27.4669 0 255 255 255 
-0.0310619 12.6088 -28.4038 0 255 255 255 
-0.0320639 13.0142 -29.3407 0 255 255 255 
-0.0330659 13.4196 -30.2775 0 255 255 255 
-0.034068 13.825 -31.2144 0 255 255 255 
-0.03507 14.2304 -32.1513 0 255 255 255 
-0.036072 14.6359 -33.0881 0 255 255 255 
-0.0370741 15.0413 -34.025 0 255 255 255 
-0.0380761 15.4467 -34.9619 0 255 255 255 
-0.0390781 15.8521 -35.8987 0 255 255 255 
-0.0400801 16.2575 -36.8356 0 255 255 255 
-0.0410822 16.6629 -37.7724 0 255 255 255 
-0.0420842 17.0683 -38.7093 0 255 255 255 
-0.0430862 17.4738 -39.6462 0 255 255 255 
-0.0440883 17.8792 -40.583 0 255 255 255 
-0.0450903 18.2846 -41.5199 0 255 255 255 
-0.0460923 18.69 -42.4568 0 255 255 255 
-0.0470943 19.0954 -43.3936 0 255 255 255 
-0.0480964 19.5008 -44.3305 0 255 255 255 
-0.0490984 19.9062 -45.2674 0 255 255 255 
-0.0501004 20.3117 -46.2042 0 255 255 255 
-0.0511025 20.7171 -47.1411 0 255 255 255 
-0.0521045 21.1225 -48.078 0 255 255 255 
-0.0531065 21.5279 -49.0148 0 255 255 255 
-0.0541085 21.9333 -49.9517 0 255 255 255 
-0.0551106 22.3387 -50.8886 0 255 255 255 
-0.0561126 22.7441 -51.8254 0 255 255 255 
-0.0571146 23.1496 -52.7623 0 255 255 255 
-0.0581167 23.555 -53.6992 0 255 255 255 
-0.0591187 23.9604 -54.636 0 255 255 255 
-0.0601207 24.3658 -55.5729 0 255 255 255 
-0.0611227 24.7712 -56.5097 0 255 255 255 
-0.0621248 25.1766 -57.4466 0 255 255 255 
-0.0631268 25.582 -58.3835 0 255 255 255 
-0.0641288 25.9875 -59.3203 0 255 255 255 
-0.0651309 26.3929 -60.2572 0 255 255 255 
-0.0661329 26.7983 -61.1941 0 255 255 255 
-0.0671349 27.2037 -62.1309 0 255 255 255 
-0.068137 27.6091 -63.0678 0 255 255 255 
-0.069139 28.0145 -64.0047 0 255 255 255 
-0.070141 28.4199 -64.9415 0 255 255 255 
-0.071143 28.8254 -65.8784 0 255 255 255 
-0.0721451 29.2308 -66.8153 0 255 255 255 
-0.0731471 29.6362 -67.7521 0 255 255 255 
-0.0741491 30.0416 -68.689 0 255 255 255 
-0.0751512 30.447 -69.6258 0 255 255 255 
-0.0761532 30.8524 -70.5627 0 255 255 255 
-0.0771552 31.2578 -71.4996 0 255 255 255 
-0.0781572 31.6632 -72.4364 0 255 255 255 
-0.0791593 32.0687 -73.3733 0 255 255 255 
-0.0801613 32.4741 -74.3102 0 255 255 255 
-0.0811633 32.8795 -75.247 0 255 255 255 
-0.0821654 33.2849 -76.1839 0 255 255 255 
-0.0831674 33.6903 -77.1208 0 255 255 255 
-0.0841694 34.0957 -78.0576 0 255 255 255 
-0.0851714 34.5011 -78.9945 0 255 255 255 
-0.0861735 34.9066 -79.9314 0 255 255 255 
-0.0871755 35.312 -80.8682 0 255 255 255 
-0.0881775 35.7174 -81.8051 0 255 255 255 
-0.0891796 36.1228 -82.742 0 255 255 255 
-0.0901816 36.5282 -83.6788 0 255 255 255 
-0.0911836 36.9336 -84.6157 0 255 255 255 
-0.0921856 37.339 -85.5526 0 255 255 255 
-0.0931877 37.7445 -86.4894 0 255 255 255 
-0.0941897 38.1499 -87.4263 0 255 255 255 
-0.0951917 38.5553 -88.3631 0 255 255 255 
-0.0961938 38.9607 -89.3 0 255 255 255 
-0.0971958 39.3661 -90.2369 0 255 255 255 
-0.0981978 39.7715 -91.1737 0 255 255 255 
-0.0991998 40.1769 -92.1106 0 255 255 255 
-0.100202 40.5824 -93.0475 0 255 255 255 
1.1002 -36.3827 97.2067 0 255 255 255 
1.0992 -35.9773 96.2698 0 255 255 255 
1.0982 -35.5719 95.3329 0 255 255 255 
1.0972 -35.1665 94.3961 0 255 255 255 
1.09619 -34.761 93.4592 0 255 255 255 
1.09519 -34.3556 92.5223 0 255 255 255 
1.09419 -33.9502 91.5855 0 255 255 255 
1.09319 -33.5448 90.6486 0 255 255 255 
1.09219 -33.1394 89.7117 0 255 255 255 
1.09118 -32.734 88.7749 0 255 255 255 
1.09018 -32.3286 87.838 0 255 255 255 
1.08918 -31.9231 86.9011 0 255 255 255 
1.08818 -31.5177 85.9643 0 255 255 255 
1.08718 -31.1123 85.0274 0 255 255 255 
1.08617 -30.7069 84.0906 0 255 255 255 
1.08517 -30.3015 83.1537 0 255 255 255 
1.08417 -29.8961 82.2168 0 255 255 255 
1.08317 -29.4907 81.28 0 255 255 255 
1.08217 -29.0852 80.3431 0 255 255 255 
1.08116 -28.6798 79.4062 0 255 255 255 
1.08016 -28.2744 78.4694 0 255 255 255 
1.07916 -27.869 77.5325 0 255 255 255 
1.07816 -27.4636 76.5956 0 255 255 255 
1.07716 -27.0582 75.6588 0 255 255 255 
1.07615 -26.6528 74.7219 0 255 255 255 
1.07515 -26.2473 73.785 0 255 255 255 
1.07415 -25.8419 72.8482 0 255 255 255 
1.07315 -25.4365 71.9113 0 255 255 255 
1.07215 -25.0311 70.9744 0 255 255 255 
1.07114 -24.6257 70.0376 0 255 255 255 
1.07014 -24.2203 69.1007 0 255 255 255 
1.06914 -23.8149 68.1639 0 255 255 255 
1.06814 -23.4094 67.227 0 255 255 255 
1.06714 -23.004 66.2901 0 255 255 255 
1.06613 -22.5986 65.3533 0 255 255 255 
1.06513 -22.1932 64.4164 0 255 255 255 
1.06413 -21.7878 63.4795 0 255 255 255 
1.06313 -21.3824 62.5427 0 255 255 255 
1.06213 -20.977 61.6058 0 255 255 255 
1.06112 -20.5715 60.6689 0 255 255 255 
1.06012 -20.1661 59.7321 0 255 255 255 
1.05912 -19.7607 58.7952 0 255 255 255 
1.05812 -19.3553 57.8583 0 255 255 255 
1.05712 -18.9499 56.9215 0 255 255 255 
1.05611 -18.5445 55.9846 0 255 255 255 
1.05511 -18.1391 55.0478 0 255 255 255 
1.05411 -17.7337 54.1109 0 255 255 255 
1.05311 -17.3282 53.174 0 255 255 255 
1.05211 -16.9228 52.2372 0 255 255 255 
1.0511 -16.5174 51.3003 0 255 255 255 
1.0501 -16.112 50.3634 0 255 255 255 
1.0491 -15.7066 49.4266 0 255 255 255 
1.0481 -15.3012 48.4897 0 255 255 255 
1.0471 -14.8958 47.5528 0 255 255 255 
1.04609 -14.4903 46.616 0 255 255 255 
1.04509 -14.0849 45.6791 0 255 255 255 
1.04409 -13.6795 44.7422 0 255 255 255 
1.04309 -13.2741 43.8054 0 255 255 255 
1.04209 -12.8687 42.8685 0 255 255 255 
1.04108 -12.4633 41.9316 0 255 255 255 
1.04008 -12.0579 40.9948 0 255 255 255 
1.03908 -11.6524 40.0579 0 255 255 255 
1.03808 -11.247 39.1211 0 255 255 255 
1.03708 -10.8416 38.1842 0 255 255 255 
1.03607 -10.4362 37.2473 0 255 255 255 
1.03507 -10.0308 36.3105 0 255 255 255 
1.03407 -9.62537 35.3736 0 255 255 255 
1.03307 -9.21996 34.4367 0 255 255 255 
1.03206 -8.81454 33.4999 0 255 255 255 
1.03106 -8.40913 32.563 0 255 255 255 
1.03006 -8.00371 31.6261 0 255 255 255 
1.02906 -7.5983 30.6893 0 255 255 255 
1.02806 -7.19289 29.7524 0 255 255 255 
1.02705 -6.78747 28.8155 0 255 255 255 
1.02605 -6.38206 27.8787 0 255 255 255 
1.02505 -5.97665 26.9418 0 255 255 255 
1.02405 -5.57123 26.0049 0 255 255 255 
1.02305 -5.16582 25.0681 0 255 255 255 
1.02204 -4.7604 24.1312 0 255 255 255 
1.02104 -4.35499 23.1944 0 255 255 255 
1.02004 -3.94958 22.2575 0 255 255 255 
1.01904 -3.54416 21.3206 0 255 255 255 
1.01804 -3.13875 20.3838 0 255 255 255 
1.01703 -2.73333 19.4469 0 255 255 255 
1.01603 -2.32792 18.51 0 255 255 255 
1.01503 -1.92251 17.5732 0 255 255 255 
1.01403 -1.51709 16.6363 0 255 255 255 
1.01303 -1.11168 15.6994 0 255 255 255 
1.01202 -0.706264 14.7626 0 255 255 255 
1.01102 -0.30085 13.8257 0 255 255 255 
