ply
format ascii 1.0
element vertex 1608
property float x
property float y
property float z
property uchar red
property uchar green
property uchar blue
property uchar alpha
end_header
2 -26.3003 89 255 0 255 255 
2 -26.7855 90 255 0 255 255 
2 -27.2707 91 255 0 255 255 
2 -27.7558 92 255 0 255 255 
2 -28.241 93 255 0 255 255 
2 -28.7262 94 255 0 255 255 
2 -29.2114 95 255 0 255 255 
2 -29.6966 96 255 0 255 255 
2 -30.1818 97 255 0 255 255 
2 -30.6669 98 255 0 255 255 
2 -31.1521 99 255 0 255 255 
2 -31.6373 100 255 0 255 255 
3 66.5457 -100 255 0 255 255 
3 66.0605 -99 255 0 255 255 
3 65.5753 -98 255 0 255 255 
3 65.0901 -97 255 0 255 255 
3 64.6049 -96 255 0 255 255 
3 64.1198 -95 255 0 255 255 
3 63.6346 -94 255 0 255 255 
3 63.1494 -93 255 0 255 255 
3 62.6642 -92 255 0 255 255 
3 62.179 -91 255 0 255 255 
3 61.6938 -90 255 0 255 255 
3 61.2087 -89 255 0 255 255 
3 60.7235 -88 255 0 255 255 
3 60.2383 -87 255 0 255 255 
3 59.7531 -86 255 0 255 255 
3 59.2679 -85 255 0 255 255 
3 58.7827 -84 255 0 255 255 
3 58.2976 -83 255 0 255 255 
3 57.8124 -82 255 0 255 255 
3 57.3272 -81 255 0 255 255 
3 56.842 -80 255 0 255 255 
3 56.3568 -79 255 0 255 255 
3 55.8716 -78 255 0 255 255 
3 55.3865 -77 255 0 255 255 
3 54.9013 -76 255 0 255 255 
3 54.4161 -75 255 0 255 255 
3 53.9309 -74 255 0 255 255 
3 53.4457 -73 255 0 255 255 
3 52.9605 -72 255 0 255 255 
3 52.4754 -71 255 0 255 255 
3 51.9902 -70 255 0 255 255 
3 51.505 -69 255 0 255 255 
3 51.0198 -68 255 0 255 255 
3 50.5346 -67 255 0 255 255 
3 50.0494 -66 255 0 255 255 
3 49.5643 -65 255 0 255 255 
3 49.0791 -64 255 0 255 255 
3 48.5939 -63 255 0 255 255 
3 48.1087 -62 255 0 255 255 
3 47.6235 -61 255 0 255 255 
3 47.1384 -60 255 0 255 255 
3 46.6532 -59 255 0 255 255 
3 46.168 -58 255 0 255 255 
3 45.6828 -57 255 0 255 255 
3 45.1976 -56 255 0 255 255 
3 44.7124 -55 255 0 255 255 
3 44.2273 -54 255 0 255 255 
3 43.7421 -53 255 0 255 255 
3 43.2569 -52 255 0 255 255 
3 42.7717 -51 255 0 255 255 
3 42.2865 -50 255 0 255 255 
3 41.8013 -49 255 0 255 255 
3 41.3162 -48 255 0 255 255 
3 40.831 -47 255 0 255 255 
3 40.3458 -46 255 0 255 255 
3 39.8606 -45 255 0 255 255 
3 39.3754 -44 255 0 255 255 
3 38.8902 -43 255 0 255 255 
3 38.4051 -42 255 0 255 255 
3 37.9199 -41 255 0 255 255 
3 37.4347 -40 255 0 255 255 
3 36.9495 -39 255 0 255 255 
3 36.4643 -38 255 0 255 255 
3 35.9791 -37 255 0 255 255 
3 35.494 -36 255 0 255 255 
3 35.0088 -35 255 0 255 255 
3 34.5236 -34 255 0 255 255 
3 34.0384 -33 255 0 255 255 
3 33.5532 -32 255 0 255 255 
3 33.068 -31 255 0 255 255 
3 32.5829 -30 255 0 255 255 
3 32.0977 -29 255 0 255 255 
3 31.6125 -28 255 0 255 255 
3 31.1273 -27 255 0 255 255 
3 30.6421 -26 255 0 255 255 
3 30.1569 -25 255 0 255 255 
3 29.6718 -24 255 0 255 255 
3 29.1866 -23 255 0 255 255 
3 28.7014 -22 255 0 255 255 
3 28.2162 -21 255 0 255 255 
3 27.731 -20 255 0 255 255 
3 27.2459 -19 255 0 255 255 
3 26.7607 -18 255 0 255 255 
3 26.2755 -17 255 0 255 255 
3 25.7903 -16 255 0 255 255 
3 25.3051 -15 255 0 255 255 
3 24.8199 -14 255 0 255 255 
3 24.3348 -13 255 0 255 255 
3 23.8496 -12 255 0 255 255 
3 23.3644 -11 255 0 255 255 
3 22.8792 -10 255 0 255 255 
3 22.394 -9 255 0 255 255 
3 21.9088 -8 255 0 255 255 
3 21.4237 -7 255 0 255 255 
3 20.9385 -6 255 0 255 255 
3 20.4533 -5 255 0 255 255 
3 19.9681 -4 255 0 255 255 
3 19.4829 -3 255 0 255 255 
3 18.9977 -2 255 0 255 255 
3 18.5126 -1 255 0 255 255 
3 18.0274 0 255 0 255 255 
3 17.5422 1 255 0 255 255 
3 17.057 2 255 0 255 255 
3 16.5718 3 255 0 255 255 
3 16.0866 4 255 0 255 255 
3 15.6015 5 255 0 255 255 
3 15.1163 6 255 0 255 255 
3 14.6311 7 255 0 255 255 
3 14.1459 8 255 0 255 255 
3 13.6607 9 255 0 255 255 
3 13.1755 10 255 0 255 255 
3 12.6904 11 255 0 255 255 
3 12.2052 12 255 0 255 255 
3 11.72 13 255 0 255 255 
3 11.2348 14 255 0 255 255 
3 10.7496 15 255 0 255 255 
3 10.2645 16 255 0 255 255 
3 9.77927 17 255 0 255 255 
3 9.29408 18 255 0 255 255 
3 8.8089 19 255 0 255 255 
3 8.32372 20 255 0 255 255 
3 7.83854 21 255 0 255 255 
3 7.35335 22 255 0 255 255 
3 6.86817 23 255 0 255 255 
3 6.38299 24 255 0 255 255 
3 5.8978 25 255 0 255 255 
3 5.41262 26 255 0 255 255 
3 4.92744 27 255 0 255 255 
3 4.44226 28 255 0 255 255 
3 3.95707 29 255 0 255 255 
3 3.47189 30 255 0 255 255 
3 2.98671 31 255 0 255 255 
3 2.50152 32 255 0 255 255 
3 2.01634 33 255 0 255 255 
3 1.53116 34 255 0 255 255 
3 1.04598 35 255 0 255 255 
3 0.560792 36 255 0 255 255 
3 0.0756093 37 255 0 255 255 
3 -0.409574 38 255 0 255 255 
3 -0.894756 39 255 0 255 255 
3 -1.37994 40 255 0 255 255 
3 -1.86512 41 255 0 255 255 
3 -2.35031 42 255 0 255 255 
3 -2.83549 43 255 0 255 255 
3 -3.32067 44 255 0 255 255 
3 -3.80585 45 255 0 255 255 
3 -4.29104 46 255 0 255 255 
3 -4.77622 47 255 0 255 255 
3 -5.2614 48 255 0 255 255 
3 -5.74659 49 255 0 255 255 
3 -6.23177 50 255 0 255 255 
3 -6.71695 51 255 0 255 255 
3 -7.20213 52 255 0 255 255 
3 -7.68732 53 255 0 255 255 
3 -8.1725 54 255 0 255 255 
3 -8.65768 55 255 0 255 255 
3 -9.14287 56 255 0 255 255 
3 -9.62805 57 255 0 255 255 
3 -10.1132 58 255 0 255 255 
3 -10.5984 59 255 0 255 255 
3 -11.0836 60 255 0 255 255 
3 -11.5688 61 255 0 255 255 
3 -12.054 62 255 0 255 255 
3 -12.5391 63 255 0 255 255 
3 -13.0243 64 255 0 255 255 
3 -13.5095 65 255 0 255 255 
3 -13.9947 66 255 0 255 255 
3 -14.4799 67 255 0 255 255 
3 -14.9651 68 255 0 255 255 
3 -15.4502 69 255 0 255 255 
3 -15.9354 70 255 0 255 255 
3 -16.4206 71 255 0 255 255 
3 -16.9058 72 255 0 255 255 
3 -17.391 73 255 0 255 255 
3 -17.8762 74 255 0 255 255 
3 -18.3613 75 255 0 255 255 
3 -18.8465 76 255 0 255 255 
3 -19.3317 77 255 0 255 255 
3 -19.8169 78 255 0 255 255 
3 -20.3021 79 255 0 255 255 
3 -20.7873 80 255 0 255 255 
3 -21.2724 81 255 0 255 255 
3 -21.7576 82 255 0 255 255 
3 -22.2428 83 255 0 255 255 
3 -22.728 84 255 0 255 255 
3 -23.2132 85 255 0 255 255 
3 -23.6984 86 255 0 255 255 
3 -24.1835 87 255 0 255 255 
3 -24.6687 88 255 0 255 255 
3 -25.1539 89 255 0 255 255 
3 -25.6391 90 255 0 255 255 
3 -26.1243 91 255 0 255 255 
3 -26.6095 92 255 0 255 255 
3 -27.0946 93 255 0 255 255 
3 -27.5798 94 255 0 255 255 
3 -28.065 95 255 0 255 255 
3 -28.5502 96 255 0 255 255 
3 -29.0354 97 255 0 255 255 
3 -29.5205 98 255 0 255 255 
3 -30.0057 99 255 0 255 255 
3 -30.4909 100 255 0 255 255 
4 67.6921 -100 255 0 255 255 
4 67.2069 -99 255 0 255 255 
4 66.7217 -98 255 0 255 255 
4 66.2365 -97 255 0 255 255 
4 65.7513 -96 255 0 255 255 
4 65.2661 -95 255 0 255 255 
4 64.781 -94 255 0 255 255 
4 64.2958 -93 255 0 255 255 
4 63.8106 -92 255 0 255 255 
4 63.3254 -91 255 0 255 255 
4 62.8402 -90 255 0 255 255 
4 62.355 -89 255 0 255 255 
4 61.8699 -88 255 0 255 255 
4 61.3847 -87 255 0 255 255 
4 60.8995 -86 255 0 255 255 
4 60.4143 -85 255 0 255 255 
4 59.9291 -84 255 0 255 255 
4 59.4439 -83 255 0 255 255 
4 58.9588 -82 255 0 255 255 
4 58.4736 -81 255 0 255 255 
4 57.9884 -80 255 0 255 255 
4 57.5032 -79 255 0 255 255 
4 57.018 -78 255 0 255 255 
4 56.5328 -77 255 0 255 255 
4 56.0477 -76 255 0 255 255 
4 55.5625 -75 255 0 255 255 
4 55.0773 -74 255 0 255 255 
4 54.5921 -73 255 0 255 255 
4 54.1069 -72 255 0 255 255 
4 53.6218 -71 255 0 255 255 
4 53.1366 -70 255 0 255 255 
4 52.6514 -69 255 0 255 255 
4 52.1662 -68 255 0 255 255 
4 51.681 -67 255 0 255 255 
4 51.1958 -66 255 0 255 255 
4 50.7107 -65 255 0 255 255 
4 50.2255 -64 255 0 255 255 
4 49.7403 -63 255 0 255 255 
4 49.2551 -62 255 0 255 255 
4 48.7699 -61 255 0 255 255 
4 48.2847 -60 255 0 255 255 
4 47.7996 -59 255 0 255 255 
4 47.3144 -58 255 0 255 255 
4 46.8292 -57 255 0 255 255 
4 46.344 -56 255 0 255 255 
4 45.8588 -55 255 0 255 255 
4 45.3736 -54 255 0 255 255 
4 44.8885 -53 255 0 255 255 
4 44.4033 -52 255 0 255 255 
4 43.9181 -51 255 0 255 255 
4 43.4329 -50 255 0 255 255 
4 42.9477 -49 255 0 255 255 
4 42.4625 -48 255 0 255 255 
4 41.9774 -47 255 0 255 255 
4 41.4922 -46 255 0 255 255 
4 41.007 -45 255 0 255 255 
4 40.5218 -44 255 0 255 255 
4 40.0366 -43 255 0 255 255 
4 39.5514 -42 255 0 255 255 
4 39.0663 -41 255 0 255 255 
4 38.5811 -40 255 0 255 255 
4 38.0959 -39 255 0 255 255 
4 37.6107 -38 255 0 255 255 
4 37.1255 -37 255 0 255 255 
4 36.6404 -36 255 0 255 255 
4 36.1552 -35 255 0 255 255 
4 35.67 -34 255 0 255 255 
4 35.1848 -33 255 0 255 255 
4 34.6996 -32 255 0 255 255 
4 34.2144 -31 255 0 255 255 
4 33.7293 -30 255 0 255 255 
4 33.2441 -29 255 0 255 255 
4 32.7589 -28 255 0 255 255 
4 32.2737 -27 255 0 255 255 
4 31.7885 -26 255 0 255 255 
4 31.3033 -25 255 0 255 255 
4 30.8182 -24 255 0 255 255 
4 30.333 -23 255 0 255 255 
4 29.8478 -22 255 0 255 255 
4 29.3626 -21 255 0 255 255 
4 28.8774 -20 255 0 255 255 
4 28.3922 -19 255 0 255 255 
4 27.9071 -18 255 0 255 255 
4 27.4219 -17 255 0 255 255 
4 26.9367 -16 255 0 255 255 
4 26.4515 -15 255 0 255 255 
4 25.9663 -14 255 0 255 255 
4 25.4811 -13 255 0 255 255 
4 24.996 -12 255 0 255 255 
4 24.5108 -11 255 0 255 255 
4 24.0256 -10 255 0 255 255 
4 23.5404 -9 255 0 255 255 
4 23.0552 -8 255 0 255 255 
4 22.57 -7 255 0 255 255 
4 22.0849 -6 255 0 255 255 
4 21.5997 -5 255 0 255 255 
4 21.1145 -4 255 0 255 255 
4 20.6293 -3 255 0 255 255 
4 20.1441 -2 255 0 255 255 
4 19.6589 -1 255 0 255 255 
4 19.1738 0 255 0 255 255 
4 18.6886 1 255 0 255 255 
4 18.2034 2 255 0 255 255 
4 17.7182 3 255 0 255 255 
4 17.233 4 255 0 255 255 
4 16.7479 5 255 0 255 255 
4 16.2627 6 255 0 255 255 
4 15.7775 7 255 0 255 255 
4 15.2923 8 255 0 255 255 
4 14.8071 9 255 0 255 255 
4 14.3219 10 255 0 255 255 
4 13.8368 11 255 0 255 255 
4 13.3516 12 255 0 255 255 
4 12.8664 13 255 0 255 255 
4 12.3812 14 255 0 255 255 
4 11.896 15 255 0 255 255 
4 11.4108 16 255 0 255 255 
4 10.9257 17 255 0 255 255 
4 10.4405 18 255 0 255 255 
4 9.95529 19 255 0 255 255 
4 9.47011 20 255 0 255 255 
4 8.98493 21 255 0 255 255 
4 8.49974 22 255 0 255 255 
4 8.01456 23 255 0 255 255 
4 7.52938 24 255 0 255 255 
4 7.04419 25 255 0 255 255 
4 6.55901 26 255 0 255 255 
4 6.07383 27 255 0 255 255 
4 5.58864 28 255 0 255 255 
4 5.10346 29 255 0 255 255 
4 4.61828 30 255 0 255 255 
4 4.1331 31 255 0 255 255 
4 3.64791 32 255 0 255 255 
4 3.16273 33 255 0 255 255 
4 2.67755 34 255 0 255 255 
4 2.19236 35 255 0 255 255 
4 1.70718 36 255 0 255 255 
4 1.222 37 255 0 255 255 
4 0.736816 38 255 0 255 255 
4 0.251633 39 255 0 255 255 
4 -0.23355 40 255 0 255 255 
4 -0.718733 41 255 0 255 255 
4 -1.20392 42 255 0 255 255 
4 -1.6891 43 255 0 255 255 
4 -2.17428 44 255 0 255 255 
4 -2.65946 45 255 0 255 255 
4 -3.14465 46 255 0 255 255 
4 -3.62983 47 255 0 255 255 
4 -4.11501 48 255 0 255 255 
4 -4.6002 49 255 0 255 255 
4 -5.08538 50 255 0 255 255 
4 -5.57056 51 255 0 255 255 
4 -6.05574 52 255 0 255 255 
4 -6.54093 53 255 0 255 255 
4 -7.02611 54 255 0 255 255 
4 -7.51129 55 255 0 255 255 
4 -7.99648 56 255 0 255 255 
4 -8.48166 57 255 0 255 255 
4 -8.96684 58 255 0 255 255 
4 -9.45203 59 255 0 255 255 
4 -9.93721 60 255 0 255 255 
4 -10.4224 61 255 0 255 255 
4 -10.9076 62 255 0 255 255 
4 -11.3928 63 255 0 255 255 
4 -11.8779 64 255 0 255 255 
4 -12.3631 65 255 0 255 255 
4 -12.8483 66 255 0 255 255 
4 -13.3335 67 255 0 255 255 
4 -13.8187 68 255 0 255 255 
4 -14.3039 69 255 0 255 255 
4 -14.789 70 255 0 255 255 
4 -15.2742 71 255 0 255 255 
4 -15.7594 72 255 0 255 255 
4 -16.2446 73 255 0 255 255 
4 -16.7298 74 255 0 255 255 
4 -17.215 75 255 0 255 255 
4 -17.7001 76 255 0 255 255 
4 -18.1853 77 255 0 255 255 
4 -18.6705 78 255 0 255 255 
4 -19.1557 79 255 0 255 255 
4 -19.6409 80 255 0 255 255 
4 -20.126 81 255 0 255 255 
4 -20.6112 82 255 0 255 255 
4 -21.0964 83 255 0 255 255 
4 -21.5816 84 255 0 255 255 
4 -22.0668 85 255 0 255 255 
4 -22.552 86 255 0 255 255 
4 -23.0371 87 255 0 255 255 
4 -23.5223 88 255 0 255 255 
4 -24.0075 89 255 0 255 255 
4 -24.4927 90 255 0 255 255 
4 -24.9779 91 255 0 255 255 
4 -25.4631 92 255 0 255 255 
4 -25.9482 93 255 0 255 255 
4 -26.4334 94 255 0 255 255 
4 -26.9186 95 255 0 255 255 
4 -27.4038 96 255 0 255 255 
4 -27.889 97 255 0 255 255 
4 -28.3742 98 255 0 255 255 
4 -28.8593 99 255 0 255 255 
4 -29.3445 100 255 0 255 255 
5 68.8384 -100 255 0 255 255 
5 68.3533 -99 255 0 255 255 
5 67.8681 -98 255 0 255 255 
5 67.3829 -97 255 0 255 255 
5 66.8977 -96 255 0 255 255 
5 66.4125 -95 255 0 255 255 
5 65.9274 -94 255 0 255 255 
5 65.4422 -93 255 0 255 255 
5 64.957 -92 255 0 255 255 
5 64.4718 -91 255 0 255 255 
5 63.9866 -90 255 0 255 255 
5 63.5014 -89 255 0 255 255 
5 63.0163 -88 255 0 255 255 
5 62.5311 -87 255 0 255 255 
5 62.0459 -86 255 0 255 255 
5 61.5607 -85 255 0 255 255 
5 61.0755 -84 255 0 255 255 
5 60.5903 -83 255 0 255 255 
5 60.1052 -82 255 0 255 255 
5 59.62 -81 255 0 255 255 
5 59.1348 -80 255 0 255 255 
5 58.6496 -79 255 0 255 255 
5 58.1644 -78 255 0 255 255 
5 57.6792 -77 255 0 255 255 
5 57.1941 -76 255 0 255 255 
5 56.7089 -75 255 0 255 255 
5 56.2237 -74 255 0 255 255 
5 55.7385 -73 255 0 255 255 
5 55.2533 -72 255 0 255 255 
5 54.7681 -71 255 0 255 255 
5 54.283 -70 255 0 255 255 
5 53.7978 -69 255 0 255 255 
5 53.3126 -68 255 0 255 255 
5 52.8274 -67 255 0 255 255 
5 52.3422 -66 255 0 255 255 
5 51.857 -65 255 0 255 255 
5 51.3719 -64 255 0 255 255 
5 50.8867 -63 255 0 255 255 
5 50.4015 -62 255 0 255 255 
5 49.9163 -61 255 0 255 255 
5 49.4311 -60 255 0 255 255 
5 48.9459 -59 255 0 255 255 
5 48.4608 -58 255 0 255 255 
5 47.9756 -57 255 0 255 255 
5 47.4904 -56 255 0 255 255 
5 47.0052 -55 255 0 255 255 
5 46.52 -54 255 0 255 255 
5 46.0349 -53 255 0 255 255 
5 45.5497 -52 255 0 255 255 
5 45.0645 -51 255 0 255 255 
5 44.5793 -50 255 0 255 255 
5 44.0941 -49 255 0 255 255 
5 43.6089 -48 255 0 255 255 
5 43.1238 -47 255 0 255 255 
5 42.6386 -46 255 0 255 255 
5 42.1534 -45 255 0 255 255 
5 41.6682 -44 255 0 255 255 
5 41.183 -43 255 0 255 255 
5 40.6978 -42 255 0 255 255 
5 40.2127 -41 255 0 255 255 
5 39.7275 -40 255 0 255 255 
5 39.2423 -39 255 0 255 255 
5 38.7571 -38 255 0 255 255 
5 38.2719 -37 255 0 255 255 
5 37.7867 -36 255 0 255 255 
5 37.3016 -35 255 0 255 255 
5 36.8164 -34 255 0 255 255 
5 36.3312 -33 255 0 255 255 
5 35.846 -32 255 0 255 255 
5 35.3608 -31 255 0 255 255 
5 34.8756 -30 255 0 255 255 
5 34.3905 -29 255 0 255 255 
5 33.9053 -28 255 0 255 255 
5 33.4201 -27 255 0 255 255 
5 32.9349 -26 255 0 255 255 
5 32.4497 -25 255 0 255 255 
5 31.9645 -24 255 0 255 255 
5 31.4794 -23 255 0 255 255 
5 30.9942 -22 255 0 255 255 
5 30.509 -21 255 0 255 255 
5 30.0238 -20 255 0 255 255 
5 29.5386 -19 255 0 255 255 
5 29.0534 -18 255 0 255 255 
5 28.5683 -17 255 0 255 255 
5 28.0831 -16 255 0 255 255 
5 27.5979 -15 255 0 255 255 
5 27.1127 -14 255 0 255 255 
5 26.6275 -13 255 0 255 255 
5 26.1424 -12 255 0 255 255 
5 25.6572 -11 255 0 255 255 
5 25.172 -10 255 0 255 255 
5 24.6868 -9 255 0 255 255 
5 24.2016 -8 255 0 255 255 
5 23.7164 -7 255 0 255 255 
5 23.2313 -6 255 0 255 255 
5 22.7461 -5 255 0 255 255 
5 22.2609 -4 255 0 255 255 
5 21.7757 -3 255 0 255 255 
5 21.2905 -2 255 0 255 255 
5 20.8053 -1 255 0 255 255 
5 20.3202 0 255 0 255 255 
5 19.835 1 255 0 255 255 
5 19.3498 2 255 0 255 255 
5 18.8646 3 255 0 255 255 
5 18.3794 4 255 0 255 255 
5 17.8942 5 255 0 255 255 
5 17.4091 6 255 0 255 255 
5 16.9239 7 255 0 255 255 
5 16.4387 8 255 0 255 255 
5 15.9535 9 255 0 255 255 
5 15.4683 10 255 0 255 255 
5 14.9831 11 255 0 255 255 
5 14.498 12 255 0 255 255 
5 14.0128 13 255 0 255 255 
5 13.5276 14 255 0 255 255 
5 13.0424 15 255 0 255 255 
5 12.5572 16 255 0 255 255 
5 12.072 17 255 0 255 255 
5 11.5869 18 255 0 255 255 
5 11.1017 19 255 0 255 255 
5 10.6165 20 255 0 255 255 
5 10.1313 21 255 0 255 255 
5 9.64613 22 255 0 255 255 
5 9.16095 23 255 0 255 255 
5 8.67577 24 255 0 255 255 
5 8.19058 25 255 0 255 255 
5 7.7054 26 255 0 255 255 
5 7.22022 27 255 0 255 255 
5 6.73503 28 255 0 255 255 
5 6.24985 29 255 0 255 255 
5 5.76467 30 255 0 255 255 
5 5.27949 31 255 0 255 255 
5 4.7943 32 255 0 255 255 
5 4.30912 33 255 0 255 255 
5 3.82394 34 255 0 255 255 
5 3.33875 35 255 0 255 255 
5 2.85357 36 255 0 255 255 
5 2.36839 37 255 0 255 255 
5 1.88321 38 255 0 255 255 
5 1.39802 39 255 0 255 255 
5 0.91284 40 255 0 255 255 
5 0.427657 41 255 0 255 255 
5 -0.0575261 42 255 0 255 255 
5 -0.542709 43 255 0 255 255 
5 -1.02789 44 255 0 255 255 
5 -1.51307 45 255 0 255 255 
5 -1.99826 46 255 0 255 255 
5 -2.48344 47 255 0 255 255 
5 -2.96862 48 255 0 255 255 
5 -3.45381 49 255 0 255 255 
5 -3.93899 50 255 0 255 255 
5 -4.42417 51 255 0 255 255 
5 -4.90936 52 255 0 255 255 
5 -5.39454 53 255 0 255 255 
5 -5.87972 54 255 0 255 255 
5 -6.3649 55 255 0 255 255 
5 -6.85009 56 255 0 255 255 
5 -7.33527 57 255 0 255 255 
5 -7.82045 58 255 0 255 255 
5 -8.30564 59 255 0 255 255 
5 -8.79082 60 255 0 255 255 
5 -9.276 61 255 0 255 255 
5 -9.76118 62 255 0 255 255 
5 -10.2464 63 255 0 255 255 
5 -10.7316 64 255 0 255 255 
5 -11.2167 65 255 0 255 255 
5 -11.7019 66 255 0 255 255 
5 -12.1871 67 255 0 255 255 
5 -12.6723 68 255 0 255 255 
5 -13.1575 69 255 0 255 255 
5 -13.6426 70 255 0 255 255 
5 -14.1278 71 255 0 255 255 
5 -14.613 72 255 0 255 255 
5 -15.0982 73 255 0 255 255 
5 -15.5834 74 255 0 255 255 
5 -16.0686 75 255 0 255 255 
5 -16.5537 76 255 0 255 255 
5 -17.0389 77 255 0 255 255 
5 -17.5241 78 255 0 255 255 
5 -18.0093 79 255 0 255 255 
5 -18.4945 80 255 0 255 255 
5 -18.9797 81 255 0 255 255 
5 -19.4648 82 255 0 255 255 
5 -19.95 83 255 0 255 255 
5 -20.4352 84 255 0 255 255 
5 -20.9204 85 255 0 255 255 
5 -21.4056 86 255 0 255 255 
5 -21.8908 87 255 0 255 255 
5 -22.3759 88 255 0 255 255 
5 -22.8611 89 255 0 255 255 
5 -23.3463 90 255 0 255 255 
5 -23.8315 91 255 0 255 255 
5 -24.3167 92 255 0 255 255 
5 -24.8019 93 255 0 255 255 
5 -25.287 94 255 0 255 255 
5 -25.7722 95 255 0 255 255 
5 -26.2574 96 255 0 255 255 
5 -26.7426 97 255 0 255 255 
5 -27.2278 98 255 0 255 255 
5 -27.713 99 255 0 255 255 
5 -28.1981 100 255 0 255 255 
6 69.9848 -100 255 0 255 255 
6 69.4997 -99 255 0 255 255 
6 69.0145 -98 255 0 255 255 
6 68.5293 -97 255 0 255 255 
6 68.0441 -96 255 0 255 255 
6 67.5589 -95 255 0 255 255 
6 67.0737 -94 255 0 255 255 
6 66.5886 -93 255 0 255 255 
6 66.1034 -92 255 0 255 255 
6 65.6182 -91 255 0 255 255 
6 65.133 -90 255 0 255 255 
6 64.6478 -89 255 0 255 255 
6 64.1626 -88 255 0 255 255 
6 63.6775 -87 255 0 255 255 
6 63.1923 -86 255 0 255 255 
6 62.7071 -85 255 0 255 255 
6 62.2219 -84 255 0 255 255 
6 61.7367 -83 255 0 255 255 
6 61.2515 -82 255 0 255 255 
6 60.7664 -81 255 0 255 255 
6 60.2812 -80 255 0 255 255 
6 59.796 -79 255 0 255 255 
6 59.3108 -78 255 0 255 255 
6 58.8256 -77 255 0 255 255 
6 58.3404 -76 255 0 255 255 
6 57.8553 -75 255 0 255 255 
6 57.3701 -74 255 0 255 255 
6 56.8849 -73 255 0 255 255 
6 56.3997 -72 255 0 255 255 
6 55.9145 -71 255 0 255 255 
6 55.4293 -70 255 0 255 255 
6 54.9442 -69 255 0 255 255 
6 54.459 -68 255 0 255 255 
6 53.9738 -67 255 0 255 255 
6 53.4886 -66 255 0 255 255 
6 53.0034 -65 255 0 255 255 
6 52.5183 -64 255 0 255 255 
6 52.0331 -63 255 0 255 255 
6 51.5479 -62 255 0 255 255 
6 51.0627 -61 255 0 255 255 
6 50.5775 -60 255 0 255 255 
6 50.0923 -59 255 0 255 255 
6 49.6072 -58 255 0 255 255 
6 49.122 -57 255 0 255 255 
6 48.6368 -56 255 0 255 255 
6 48.1516 -55 255 0 255 255 
6 47.6664 -54 255 0 255 255 
6 47.1812 -53 255 0 255 255 
6 46.6961 -52 255 0 255 255 
6 46.2109 -51 255 0 255 255 
6 45.7257 -50 255 0 255 255 
6 45.2405 -49 255 0 255 255 
6 44.7553 -48 255 0 255 255 
6 44.2701 -47 255 0 255 255 
6 43.785 -46 255 0 255 255 
6 43.2998 -45 255 0 255 255 
6 42.8146 -44 255 0 255 255 
6 42.3294 -43 255 0 255 255 
6 41.8442 -42 255 0 255 255 
6 41.359 -41 255 0 255 255 
6 40.8739 -40 255 0 255 255 
6 40.3887 -39 255 0 255 255 
6 39.9035 -38 255 0 255 255 
6 39.4183 -37 255 0 255 255 
6 38.9331 -36 255 0 255 255 
6 38.4479 -35 255 0 255 255 
6 37.9628 -34 255 0 255 255 
6 37.4776 -33 255 0 255 255 
6 36.9924 -32 255 0 255 255 
6 36.5072 -31 255 0 255 255 
6 36.022 -30 255 0 255 255 
6 35.5368 -29 255 0 255 255 
6 35.0517 -28 255 0 255 255 
6 34.5665 -27 255 0 255 255 
6 34.0813 -26 255 0 255 255 
6 33.5961 -25 255 0 255 255 
6 33.1109 -24 255 0 255 255 
6 32.6258 -23 255 0 255 255 
6 32.1406 -22 255 0 255 255 
6 31.6554 -21 255 0 255 255 
6 31.1702 -20 255 0 255 255 
6 30.685 -19 255 0 255 255 
6 30.1998 -18 255 0 255 255 
6 29.7147 -17 255 0 255 255 
6 29.2295 -16 255 0 255 255 
6 28.7443 -15 255 0 255 255 
6 28.2591 -14 255 0 255 255 
6 27.7739 -13 255 0 255 255 
6 27.2887 -12 255 0 255 255 
6 26.8036 -11 255 0 255 255 
6 26.3184 -10 255 0 255 255 
6 25.8332 -9 255 0 255 255 
6 25.348 -8 255 0 255 255 
6 24.8628 -7 255 0 255 255 
6 24.3776 -6 255 0 255 255 
6 23.8925 -5 255 0 255 255 
6 23.4073 -4 255 0 255 255 
6 22.9221 -3 255 0 255 255 
6 22.4369 -2 255 0 255 255 
6 21.9517 -1 255 0 255 255 
6 21.4665 0 255 0 255 255 
6 20.9814 1 255 0 255 255 
6 20.4962 2 255 0 255 255 
6 20.011 3 255 0 255 255 
6 19.5258 4 255 0 255 255 
6 19.0406 5 255 0 255 255 
6 18.5554 6 255 0 255 255 
6 18.0703 7 255 0 255 255 
6 17.5851 8 255 0 255 255 
6 17.0999 9 255 0 255 255 
6 16.6147 10 255 0 255 255 
6 16.1295 11 255 0 255 255 
6 15.6444 12 255 0 255 255 
6 15.1592 13 255 0 255 255 
6 14.674 14 255 0 255 255 
6 14.1888 15 255 0 255 255 
6 13.7036 16 255 0 255 255 
6 13.2184 17 255 0 255 255 
6 12.7333 18 255 0 255 255 
6 12.2481 19 255 0 255 255 
6 11.7629 20 255 0 255 255 
6 11.2777 21 255 0 255 255 
6 10.7925 22 255 0 255 255 
6 10.3073 23 255 0 255 255 
6 9.82216 24 255 0 255 255 
6 9.33697 25 255 0 255 255 
6 8.85179 26 255 0 255 255 
6 8.36661 27 255 0 255 255 
6 7.88142 28 255 0 255 255 
6 7.39624 29 255 0 255 255 
6 6.91106 30 255 0 255 255 
6 6.42588 31 255 0 255 255 
6 5.94069 32 255 0 255 255 
6 5.45551 33 255 0 255 255 
6 4.97033 34 255 0 255 255 
6 4.48514 35 255 0 255 255 
6 3.99996 36 255 0 255 255 
6 3.51478 37 255 0 255 255 
6 3.0296 38 255 0 255 255 
6 2.54441 39 255 0 255 255 
6 2.05923 40 255 0 255 255 
6 1.57405 41 255 0 255 255 
6 1.08886 42 255 0 255 255 
6 0.603681 43 255 0 255 255 
6 0.118498 44 255 0 255 255 
6 -0.366685 45 255 0 255 255 
6 -0.851868 46 255 0 255 255 
6 -1.33705 47 255 0 255 255 
6 -1.82223 48 255 0 255 255 
6 -2.30742 49 255 0 255 255 
6 -2.7926 50 255 0 255 255 
6 -3.27778 51 255 0 255 255 
6 -3.76297 52 255 0 255 255 
6 -4.24815 53 255 0 255 255 
6 -4.73333 54 255 0 255 255 
6 -5.21851 55 255 0 255 255 
6 -5.7037 56 255 0 255 255 
6 -6.18888 57 255 0 255 255 
6 -6.67406 58 255 0 255 255 
6 -7.15925 59 255 0 255 255 
6 -7.64443 60 255 0 255 255 
6 -8.12961 61 255 0 255 255 
6 -8.61479 62 255 0 255 255 
6 -9.09998 63 255 0 255 255 
6 -9.58516 64 255 0 255 255 
6 -10.0703 65 255 0 255 255 
6 -10.5555 66 255 0 255 255 
6 -11.0407 67 255 0 255 255 
6 -11.5259 68 255 0 255 255 
6 -12.0111 69 255 0 255 255 
6 -12.4963 70 255 0 255 255 
6 -12.9814 71 255 0 255 255 
6 -13.4666 72 255 0 255 255 
6 -13.9518 73 255 0 255 255 
6 -14.437 74 255 0 255 255 
6 -14.9222 75 255 0 255 255 
6 -15.4074 76 255 0 255 255 
6 -15.8925 77 255 0 255 255 
6 -16.3777 78 255 0 255 255 
6 -16.8629 79 255 0 255 255 
6 -17.3481 80 255 0 255 255 
6 -17.8333 81 255 0 255 255 
6 -18.3185 82 255 0 255 255 
6 -18.8036 83 255 0 255 255 
6 -19.2888 84 255 0 255 255 
6 -19.774 85 255 0 255 255 
6 -20.2592 86 255 0 255 255 
6 -20.7444 87 255 0 255 255 
6 -21.2295 88 255 0 255 255 
6 -21.7147 89 255 0 255 255 
6 -22.1999 90 255 0 255 255 
6 -22.6851 91 255 0 255 255 
6 -23.1703 92 255 0 255 255 
6 -23.6555 93 255 0 255 255 
6 -24.1406 94 255 0 255 255 
6 -24.6258 95 255 0 255 255 
6 -25.111 96 255 0 255 255 
6 -25.5962 97 255 0 255 255 
6 -26.0814 98 255 0 255 255 
6 -26.5666 99 255 0 255 255 
6 -27.0517 100 255 0 255 255 
7 71.1312 -100 255 0 255 255 
7 70.646 -99 255 0 255 255 
7 70.1609 -98 255 0 255 255 
7 69.6757 -97 255 0 255 255 
7 69.1905 -96 255 0 255 255 
7 68.7053 -95 255 0 255 255 
7 68.2201 -94 255 0 255 255 
7 67.7349 -93 255 0 255 255 
7 67.2498 -92 255 0 255 255 
7 66.7646 -91 255 0 255 255 
7 66.2794 -90 255 0 255 255 
7 65.7942 -89 255 0 255 255 
7 65.309 -88 255 0 255 255 
7 64.8238 -87 255 0 255 255 
7 64.3387 -86 255 0 255 255 
7 63.8535 -85 255 0 255 255 
7 63.3683 -84 255 0 255 255 
7 62.8831 -83 255 0 255 255 
7 62.3979 -82 255 0 255 255 
7 61.9128 -81 255 0 255 255 
7 61.4276 -80 255 0 255 255 
7 60.9424 -79 255 0 255 255 
7 60.4572 -78 255 0 255 255 
7 59.972 -77 255 0 255 255 
7 59.4868 -76 255 0 255 255 
7 59.0017 -75 255 0 255 255 
7 58.5165 -74 255 0 255 255 
7 58.0313 -73 255 0 255 255 
7 57.5461 -72 255 0 255 255 
7 57.0609 -71 255 0 255 255 
7 56.5757 -70 255 0 255 255 
7 56.0906 -69 255 0 255 255 
7 55.6054 -68 255 0 255 255 
7 55.1202 -67 255 0 255 255 
7 54.635 -66 255 0 255 255 
7 54.1498 -65 255 0 255 255 
7 53.6646 -64 255 0 255 255 
7 53.1795 -63 255 0 255 255 
7 52.6943 -62 255 0 255 255 
7 52.2091 -61 255 0 255 255 
7 51.7239 -60 255 0 255 255 
7 51.2387 -59 255 0 255 255 
7 50.7535 -58 255 0 255 255 
7 50.2684 -57 255 0 255 255 
7 49.7832 -56 255 0 255 255 
7 49.298 -55 255 0 255 255 
7 48.8128 -54 255 0 255 255 
7 48.3276 -53 255 0 255 255 
7 47.8424 -52 255 0 255 255 
7 47.3573 -51 255 0 255 255 
7 46.8721 -50 255 0 255 255 
7 46.3869 -49 255 0 255 255 
7 45.9017 -48 255 0 255 255 
7 45.4165 -47 255 0 255 255 
7 44.9314 -46 255 0 255 255 
7 44.4462 -45 255 0 255 255 
7 43.961 -44 255 0 255 255 
7 43.4758 -43 255 0 255 255 
7 42.9906 -42 255 0 255 255 
7 42.5054 -41 255 0 255 255 
7 42.0203 -40 255 0 255 255 
7 41.5351 -39 255 0 255 255 
7 41.0499 -38 255 0 255 255 
7 40.5647 -37 255 0 255 255 
7 40.0795 -36 255 0 255 255 
7 39.5943 -35 255 0 255 255 
7 39.1092 -34 255 0 255 255 
7 38.624 -33 255 0 255 255 
7 38.1388 -32 255 0 255 255 
7 37.6536 -31 255 0 255 255 
7 37.1684 -30 255 0 255 255 
7 36.6832 -29 255 0 255 255 
7 36.1981 -28 255 0 255 255 
7 35.7129 -27 255 0 255 255 
7 35.2277 -26 255 0 255 255 
7 34.7425 -25 255 0 255 255 
7 34.2573 -24 255 0 255 255 
7 33.7721 -23 255 0 255 255 
7 33.287 -22 255 0 255 255 
7 32.8018 -21 255 0 255 255 
7 32.3166 -20 255 0 255 255 
7 31.8314 -19 255 0 255 255 
7 31.3462 -18 255 0 255 255 
7 30.861 -17 255 0 255 255 
7 30.3759 -16 255 0 255 255 
7 29.8907 -15 255 0 255 255 
7 29.4055 -14 255 0 255 255 
7 28.9203 -13 255 0 255 255 
7 28.4351 -12 255 0 255 255 
7 27.9499 -11 255 0 255 255 
7 27.4648 -10 255 0 255 255 
7 26.9796 -9 255 0 255 255 
7 26.4944 -8 255 0 255 255 
7 26.0092 -7 255 0 255 255 
7 25.524 -6 255 0 255 255 
7 25.0388 -5 255 0 255 255 
7 24.5537 -4 255 0 255 255 
7 24.0685 -3 255 0 255 255 
7 23.5833 -2 255 0 255 255 
7 23.0981 -1 255 0 255 255 
7 22.6129 0 255 0 255 255 
7 22.1278 1 255 0 255 255 
7 21.6426 2 255 0 255 255 
7 21.1574 3 255 0 255 255 
7 20.6722 4 255 0 255 255 
7 20.187 5 255 0 255 255 
7 19.7018 6 255 0 255 255 
7 19.2167 7 255 0 255 255 
7 18.7315 8 255 0 255 255 
7 18.2463 9 255 0 255 255 
7 17.7611 10 255 0 255 255 
7 17.2759 11 255 0 255 255 
7 16.7907 12 255 0 255 255 
7 16.3056 13 255 0 255 255 
7 15.8204 14 255 0 255 255 
7 15.3352 15 255 0 255 255 
7 14.85 16 255 0 255 255 
7 14.3648 17 255 0 255 255 
7 13.8796 18 255 0 255 255 
7 13.3945 19 255 0 255 255 
7 12.9093 20 255 0 255 255 
7 12.4241 21 255 0 255 255 
7 11.9389 22 255 0 255 255 
7 11.4537 23 255 0 255 255 
7 10.9685 24 255 0 255 255 
7 10.4834 25 255 0 255 255 
7 9.99818 26 255 0 255 255 
7 9.513 27 255 0 255 255 
7 9.02781 28 255 0 255 255 
7 8.54263 29 255 0 255 255 
7 8.05745 30 255 0 255 255 
7 7.57227 31 255 0 255 255 
7 7.08708 32 255 0 255 255 
7 6.6019 33 255 0 255 255 
7 6.11672 34 255 0 255 255 
7 5.63153 35 255 0 255 255 
7 5.14635 36 255 0 255 255 
7 4.66117 37 255 0 255 255 
7 4.17598 38 255 0 255 255 
7 3.6908 39 255 0 255 255 
7 3.20562 40 255 0 255 255 
7 2.72044 41 255 0 255 255 
7 2.23525 42 255 0 255 255 
7 1.75007 43 255 0 255 255 
7 1.26489 44 255 0 255 255 
7 0.779704 45 255 0 255 255 
7 0.294521 46 255 0 255 255 
7 -0.190661 47 255 0 255 255 
7 -0.675844 48 255 0 255 255 
7 -1.16103 49 255 0 255 255 
7 -1.64621 50 255 0 255 255 
7 -2.13139 51 255 0 255 255 
7 -2.61658 52 255 0 255 255 
7 -3.10176 53 255 0 255 255 
7 -3.58694 54 255 0 255 255 
7 -4.07212 55 255 0 255 255 
7 -4.55731 56 255 0 255 255 
7 -5.04249 57 255 0 255 255 
7 -5.52767 58 255 0 255 255 
7 -6.01286 59 255 0 255 255 
7 -6.49804 60 255 0 255 255 
7 -6.98322 61 255 0 255 255 
7 -7.46841 62 255 0 255 255 
7 -7.95359 63 255 0 255 255 
7 -8.43877 64 255 0 255 255 
7 -8.92395 65 255 0 255 255 
7 -9.40914 66 255 0 255 255 
7 -9.89432 67 255 0 255 255 
7 -10.3795 68 255 0 255 255 
7 -10.8647 69 255 0 255 255 
7 -11.3499 70 255 0 255 255 
7 -11.8351 71 255 0 255 255 
7 -12.3202 72 255 0 255 255 
7 -12.8054 73 255 0 255 255 
7 -13.2906 74 255 0 255 255 
7 -13.7758 75 255 0 255 255 
7 -14.261 76 255 0 255 255 
7 -14.7461 77 255 0 255 255 
7 -15.2313 78 255 0 255 255 
7 -15.7165 79 255 0 255 255 
7 -16.2017 80 255 0 255 255 
7 -16.6869 81 255 0 255 255 
7 -17.1721 82 255 0 255 255 
7 -17.6572 83 255 0 255 255 
7 -18.1424 84 255 0 255 255 
7 -18.6276 85 255 0 255 255 
7 -19.1128 86 255 0 255 255 
7 -19.598 87 255 0 255 255 
7 -20.0832 88 255 0 255 255 
7 -20.5683 89 255 0 255 255 
7 -21.0535 90 255 0 255 255 
7 -21.5387 91 255 0 255 255 
7 -22.0239 92 255 0 255 255 
7 -22.5091 93 255 0 255 255 
7 -22.9943 94 255 0 255 255 
7 -23.4794 95 255 0 255 255 
7 -23.9646 96 255 0 255 255 
7 -24.4498 97 255 0 255 255 
7 -24.935 98 255 0 255 255 
7 -25.4202 99 255 0 255 255 
7 -25.9054 100 255 0 255 255 
8 72.2776 -100 255 0 255 255 
8 71.7924 -99 255 0 255 255 
8 71.3073 -98 255 0 255 255 
8 70.8221 -97 255 0 255 255 
8 70.3369 -96 255 0 255 255 
8 69.8517 -95 255 0 255 255 
8 69.3665 -94 255 0 255 255 
8 68.8813 -93 255 0 255 255 
8 68.3961 -92 255 0 255 255 
8 67.911 -91 255 0 255 255 
8 67.4258 -90 255 0 255 255 
8 66.9406 -89 255 0 255 255 
8 66.4554 -88 255 0 255 255 
8 65.9702 -87 255 0 255 255 
8 65.4851 -86 255 0 255 255 
8 64.9999 -85 255 0 255 255 
8 64.5147 -84 255 0 255 255 
8 64.0295 -83 255 0 255 255 
8 63.5443 -82 255 0 255 255 
8 63.0591 -81 255 0 255 255 
8 62.574 -80 255 0 255 255 
8 62.0888 -79 255 0 255 255 
8 61.6036 -78 255 0 255 255 
8 61.1184 -77 255 0 255 255 
8 60.6332 -76 255 0 255 255 
8 60.148 -75 255 0 255 255 
8 59.6629 -74 255 0 255 255 
8 59.1777 -73 255 0 255 255 
8 58.6925 -72 255 0 255 255 
8 58.2073 -71 255 0 255 255 
8 57.7221 -70 255 0 255 255 
8 57.2369 -69 255 0 255 255 
8 56.7518 -68 255 0 255 255 
8 56.2666 -67 255 0 255 255 
8 55.7814 -66 255 0 255 255 
8 55.2962 -65 255 0 255 255 
8 54.811 -64 255 0 255 255 
8 54.3258 -63 255 0 255 255 
8 53.8407 -62 255 0 255 255 
8 53.3555 -61 255 0 255 255 
8 52.8703 -60 255 0 255 255 
8 52.3851 -59 255 0 255 255 
8 51.8999 -58 255 0 255 255 
8 51.4147 -57 255 0 255 255 
8 50.9296 -56 255 0 255 255 
8 50.4444 -55 255 0 255 255 
8 49.9592 -54 255 0 255 255 
8 49.474 -53 255 0 255 255 
8 48.9888 -52 255 0 255 255 
8 48.5037 -51 255 0 255 255 
8 48.0185 -50 255 0 255 255 
8 47.5333 -49 255 0 255 255 
8 47.0481 -48 255 0 255 255 
8 46.5629 -47 255 0 255 255 
8 46.0777 -46 255 0 255 255 
8 45.5926 -45 255 0 255 255 
8 45.1074 -44 255 0 255 255 
8 44.6222 -43 255 0 255 255 
8 44.137 -42 255 0 255 255 
8 43.6518 -41 255 0 255 255 
8 43.1666 -40 255 0 255 255 
8 42.6815 -39 255 0 255 255 
8 42.1963 -38 255 0 255 255 
8 41.7111 -37 255 0 255 255 
8 41.2259 -36 255 0 255 255 
8 40.7407 -35 255 0 255 255 
8 40.2555 -34 255 0 255 255 
8 39.7704 -33 255 0 255 255 
8 39.2852 -32 255 0 255 255 
8 38.8 -31 255 0 255 255 
8 38.3148 -30 255 0 255 255 
8 37.8296 -29 255 0 255 255 
8 37.3444 -28 255 0 255 255 
8 36.8593 -27 255 0 255 255 
8 36.3741 -26 255 0 255 255 
8 35.8889 -25 255 0 255 255 
8 35.4037 -24 255 0 255 255 
8 34.9185 -23 255 0 255 255 
8 34.4333 -22 255 0 255 255 
8 33.9482 -21 255 0 255 255 
8 33.463 -20 255 0 255 255 
8 32.9778 -19 255 0 255 255 
8 32.4926 -18 255 0 255 255 
8 32.0074 -17 255 0 255 255 
8 31.5223 -16 255 0 255 255 
8 31.0371 -15 255 0 255 255 
8 30.5519 -14 255 0 255 255 
8 30.0667 -13 255 0 255 255 
8 29.5815 -12 255 0 255 255 
8 29.0963 -11 255 0 255 255 
8 28.6112 -10 255 0 255 255 
8 28.126 -9 255 0 255 255 
8 27.6408 -8 255 0 255 255 
8 27.1556 -7 255 0 255 255 
8 26.6704 -6 255 0 255 255 
8 26.1852 -5 255 0 255 255 
8 25.7001 -4 255 0 255 255 
8 25.2149 -3 255 0 255 255 
8 24.7297 -2 255 0 255 255 
8 24.2445 -1 255 0 255 255 
8 23.7593 0 255 0 255 255 
8 23.2741 1 255 0 255 255 
8 22.789 2 255 0 255 255 
8 22.3038 3 255 0 255 255 
8 21.8186 4 255 0 255 255 
8 21.3334 5 255 0 255 255 
8 20.8482 6 255 0 255 255 
8 20.363 7 255 0 255 255 
8 19.8779 8 255 0 255 255 
8 19.3927 9 255 0 255 255 
8 18.9075 10 255 0 255 255 
8 18.4223 11 255 0 255 255 
8 17.9371 12 255 0 255 255 
8 17.4519 13 255 0 255 255 
8 16.9668 14 255 0 255 255 
8 16.4816 15 255 0 255 255 
8 15.9964 16 255 0 255 255 
8 15.5112 17 255 0 255 255 
8 15.026 18 255 0 255 255 
8 14.5408 19 255 0 255 255 
8 14.0557 20 255 0 255 255 
8 13.5705 21 255 0 255 255 
8 13.0853 22 255 0 255 255 
8 12.6001 23 255 0 255 255 
8 12.1149 24 255 0 255 255 
8 11.6298 25 255 0 255 255 
8 11.1446 26 255 0 255 255 
8 10.6594 27 255 0 255 255 
8 10.1742 28 255 0 255 255 
8 9.68902 29 255 0 255 255 
8 9.20384 30 255 0 255 255 
8 8.71865 31 255 0 255 255 
8 8.23347 32 255 0 255 255 
8 7.74829 33 255 0 255 255 
8 7.26311 34 255 0 255 255 
8 6.77792 35 255 0 255 255 
8 6.29274 36 255 0 255 255 
8 5.80756 37 255 0 255 255 
8 5.32237 38 255 0 255 255 
8 4.83719 39 255 0 255 255 
8 4.35201 40 255 0 255 255 
8 3.86683 41 255 0 255 255 
8 3.38164 42 255 0 255 255 
8 2.89646 43 255 0 255 255 
8 2.41128 44 255 0 255 255 
8 1.92609 45 255 0 255 255 
8 1.44091 46 255 0 255 255 
8 0.955728 47 255 0 255 255 
8 0.470545 48 255 0 255 255 
8 -0.0146377 49 255 0 255 255 
8 -0.499821 50 255 0 255 255 
8 -0.985004 51 255 0 255 255 
8 -1.47019 52 255 0 255 255 
8 -1.95537 53 255 0 255 255 
8 -2.44055 54 255 0 255 255 
8 -2.92574 55 255 0 255 255 
8 -3.41092 56 255 0 255 255 
8 -3.8961 57 255 0 255 255 
8 -4.38128 58 255 0 255 255 
8 -4.86647 59 255 0 255 255 
8 -5.35165 60 255 0 255 255 
8 -5.83683 61 255 0 255 255 
8 -6.32202 62 255 0 255 255 
8 -6.8072 63 255 0 255 255 
8 -7.29238 64 255 0 255 255 
8 -7.77756 65 255 0 255 255 
8 -8.26275 66 255 0 255 255 
8 -8.74793 67 255 0 255 255 
8 -9.23311 68 255 0 255 255 
8 -9.7183 69 255 0 255 255 
8 -10.2035 70 255 0 255 255 
8 -10.6887 71 255 0 255 255 
8 -11.1738 72 255 0 255 255 
8 -11.659 73 255 0 255 255 
8 -12.1442 74 255 0 255 255 
8 -12.6294 75 255 0 255 255 
8 -13.1146 76 255 0 255 255 
8 -13.5998 77 255 0 255 255 
8 -14.0849 78 255 0 255 255 
8 -14.5701 79 255 0 255 255 
8 -15.0553 80 255 0 255 255 
8 -15.5405 81 255 0 255 255 
8 -16.0257 82 255 0 255 255 
8 -16.5109 83 255 0 255 255 
8 -16.996 84 255 0 255 255 
8 -17.4812 85 255 0 255 255 
8 -17.9664 86 255 0 255 255 
8 -18.4516 87 255 0 255 255 
8 -18.9368 88 255 0 255 255 
8 -19.422 89 255 0 255 255 
8 -19.9071 90 255 0 255 255 
8 -20.3923 91 255 0 255 255 
8 -20.8775 92 255 0 255 255 
8 -21.3627 93 255 0 255 255 
8 -21.8479 94 255 0 255 255 
8 -22.3331 95 255 0 255 255 
8 -22.8182 96 255 0 255 255 
8 -23.3034 97 255 0 255 255 
8 -23.7886 98 255 0 255 255 
8 -24.2738 99 255 0 255 255 
8 -24.759 100 255 0 255 255 
9 73.424 -100 255 0 255 255 
9 72.9388 -99 255 0 255 255 
9 72.4536 -98 255 0 255 255 
9 71.9685 -97 255 0 255 255 
9 71.4833 -96 255 0 255 255 
9 70.9981 -95 255 0 255 255 
9 70.5129 -94 255 0 255 255 
9 70.0277 -93 255 0 255 255 
9 69.5425 -92 255 0 255 255 
9 69.0574 -91 255 0 255 255 
9 68.5722 -90 255 0 255 255 
9 68.087 -89 255 0 255 255 
9 67.6018 -88 255 0 255 255 
9 67.1166 -87 255 0 255 255 
9 66.6314 -86 255 0 255 255 
9 66.1463 -85 255 0 255 255 
9 65.6611 -84 255 0 255 255 
9 65.1759 -83 255 0 255 255 
9 64.6907 -82 255 0 255 255 
9 64.2055 -81 255 0 255 255 
9 63.7203 -80 255 0 255 255 
9 63.2352 -79 255 0 255 255 
9 62.75 -78 255 0 255 255 
9 62.2648 -77 255 0 255 255 
9 61.7796 -76 255 0 255 255 
9 61.2944 -75 255 0 255 255 
9 60.8092 -74 255 0 255 255 
9 60.3241 -73 255 0 255 255 
9 59.8389 -72 255 0 255 255 
9 59.3537 -71 255 0 255 255 
9 58.8685 -70 255 0 255 255 
9 58.3833 -69 255 0 255 255 
9 57.8982 -68 255 0 255 255 
9 57.413 -67 255 0 255 255 
9 56.9278 -66 255 0 255 255 
9 56.4426 -65 255 0 255 255 
9 55.9574 -64 255 0 255 255 
9 55.4722 -63 255 0 255 255 
9 54.9871 -62 255 0 255 255 
9 54.5019 -61 255 0 255 255 
9 54.0167 -60 255 0 255 255 
9 53.5315 -59 255 0 255 255 
9 53.0463 -58 255 0 255 255 
9 52.5611 -57 255 0 255 255 
9 52.076 -56 255 0 255 255 
9 51.5908 -55 255 0 255 255 
9 51.1056 -54 255 0 255 255 
9 50.6204 -53 255 0 255 255 
9 50.1352 -52 255 0 255 255 
9 49.65 -51 255 0 255 255 
9 49.1649 -50 255 0 255 255 
9 48.6797 -49 255 0 255 255 
9 48.1945 -48 255 0 255 255 
9 47.7093 -47 255 0 255 255 
9 47.2241 -46 255 0 255 255 
9 46.7389 -45 255 0 255 255 
9 46.2538 -44 255 0 255 255 
9 45.7686 -43 255 0 255 255 
9 45.2834 -42 255 0 255 255 
9 44.7982 -41 255 0 255 255 
9 44.313 -40 255 0 255 255 
9 43.8278 -39 255 0 255 255 
9 43.3427 -38 255 0 255 255 
9 42.8575 -37 255 0 255 255 
9 42.3723 -36 255 0 255 255 
9 41.8871 -35 255 0 255 255 
9 41.4019 -34 255 0 255 255 
9 40.9168 -33 255 0 255 255 
9 40.4316 -32 255 0 255 255 
9 39.9464 -31 255 0 255 255 
9 39.4612 -30 255 0 255 255 
9 38.976 -29 255 0 255 255 
9 38.4908 -28 255 0 255 255 
9 38.0057 -27 255 0 255 255 
9 37.5205 -26 255 0 255 255 
9 37.0353 -25 255 0 255 255 
9 36.5501 -24 255 0 255 255 
9 36.0649 -23 255 0 255 255 
9 35.5797 -22 255 0 255 255 
9 35.0946 -21 255 0 255 255 
9 34.6094 -20 255 0 255 255 
9 34.1242 -19 255 0 255 255 
9 33.639 -18 255 0 255 255 
9 33.1538 -17 255 0 255 255 
9 32.6686 -16 255 0 255 255 
9 32.1835 -15 255 0 255 255 
9 31.6983 -14 255 0 255 255 
9 31.2131 -13 255 0 255 255 
9 30.7279 -12 255 0 255 255 
9 30.2427 -11 255 0 255 255 
9 29.7575 -10 255 0 255 255 
9 29.2724 -9 255 0 255 255 
9 28.7872 -8 255 0 255 255 
9 28.302 -7 255 0 255 255 
9 27.8168 -6 255 0 255 255 
9 27.3316 -5 255 0 255 255 
9 26.8464 -4 255 0 255 255 
9 26.3613 -3 255 0 255 255 
9 25.8761 -2 255 0 255 255 
9 25.3909 -1 255 0 255 255 
9 24.9057 0 255 0 255 255 
9 24.4205 1 255 0 255 255 
9 23.9353 2 255 0 255 255 
9 23.4502 3 255 0 255 255 
9 22.965 4 255 0 255 255 
9 22.4798 5 255 0 255 255 
9 21.9946 6 255 0 255 255 
9 21.5094 7 255 0 255 255 
9 21.0243 8 255 0 255 255 
9 20.5391 9 255 0 255 255 
9 20.0539 10 255 0 255 255 
9 19.5687 11 255 0 255 255 
9 19.0835 12 255 0 255 255 
9 18.5983 13 255 0 255 255 
9 18.1132 14 255 0 255 255 
9 17.628 15 255 0 255 255 
9 17.1428 16 255 0 255 255 
9 16.6576 17 255 0 255 255 
9 16.1724 18 255 0 255 255 
9 15.6872 19 255 0 255 255 
9 15.2021 20 255 0 255 255 
9 14.7169 21 255 0 255 255 
9 14.2317 22 255 0 255 255 
9 13.7465 23 255 0 255 255 
9 13.2613 24 255 0 255 255 
9 12.7761 25 255 0 255 255 
9 12.291 26 255 0 255 255 
9 11.8058 27 255 0 255 255 
9 11.3206 28 255 0 255 255 
9 10.8354 29 255 0 255 255 
9 10.3502 30 255 0 255 255 
9 9.86504 31 255 0 255 255 
9 9.37986 32 255 0 255 255 
9 8.89468 33 255 0 255 255 
9 8.4095 34 255 0 255 255 
9 7.92431 35 255 0 255 255 
9 7.43913 36 255 0 255 255 
9 6.95395 37 255 0 255 255 
9 6.46876 38 255 0 255 255 
9 5.98358 39 255 0 255 255 
9 5.4984 40 255 0 255 255 
9 5.01322 41 255 0 255 255 
9 4.52803 42 255 0 255 255 
9 4.04285 43 255 0 255 255 
9 3.55767 44 255 0 255 255 
9 3.07248 45 255 0 255 255 
9 2.5873 46 255 0 255 255 
9 2.10212 47 255 0 255 255 
9 1.61693 48 255 0 255 255 
9 1.13175 49 255 0 255 255 
9 0.646569 50 255 0 255 255 
9 0.161386 51 255 0 255 255 
9 -0.323797 52 255 0 255 255 
9 -0.80898 53 255 0 255 255 
9 -1.29416 54 255 0 255 255 
9 -1.77935 55 255 0 255 255 
9 -2.26453 56 255 0 255 255 
9 -2.74971 57 255 0 255 255 
9 -3.23489 58 255 0 255 255 
9 -3.72008 59 255 0 255 255 
9 -4.20526 60 255 0 255 255 
9 -4.69044 61 255 0 255 255 
9 -5.17563 62 255 0 255 255 
9 -5.66081 63 255 0 255 255 
9 -6.14599 64 255 0 255 255 
9 -6.63117 65 255 0 255 255 
9 -7.11636 66 255 0 255 255 
9 -7.60154 67 255 0 255 255 
9 -8.08672 68 255 0 255 255 
9 -8.57191 69 255 0 255 255 
9 -9.05709 70 255 0 255 255 
9 -9.54227 71 255 0 255 255 
9 -10.0275 72 255 0 255 255 
9 -10.5126 73 255 0 255 255 
9 -10.9978 74 255 0 255 255 
9 -11.483 75 255 0 255 255 
9 -11.9682 76 255 0 255 255 
9 -12.4534 77 255 0 255 255 
9 -12.9386 78 255 0 255 255 
9 -13.4237 79 255 0 255 255 
9 -13.9089 80 255 0 255 255 
9 -14.3941 81 255 0 255 255 
9 -14.8793 82 255 0 255 255 
9 -15.3645 83 255 0 255 255 
9 -15.8496 84 255 0 255 255 
9 -16.3348 85 255 0 255 255 
9 -16.82 86 255 0 255 255 
9 -17.3052 87 255 0 255 255 
9 -17.7904 88 255 0 255 255 
9 -18.2756 89 255 0 255 255 
9 -18.7607 90 255 0 255 255 
9 -19.2459 91 255 0 255 255 
9 -19.7311 92 255 0 255 255 
9 -20.2163 93 255 0 255 255 
9 -20.7015 94 255 0 255 255 
9 -21.1867 95 255 0 255 255 
9 -21.6718 96 255 0 255 255 
9 -22.157 97 255 0 255 255 
9 -22.6422 98 255 0 255 255 
9 -23.1274 99 255 0 255 255 
9 -23.6126 100 255 0 255 255 
10 74.5704 -100 255 0 255 255 
10 74.0852 -99 255 0 255 255 
10 73.6 -98 255 0 255 255 
10 73.1148 -97 255 0 255 255 
10 72.6297 -96 255 0 255 255 
10 72.1445 -95 255 0 255 255 
10 71.6593 -94 255 0 255 255 
10 71.1741 -93 255 0 255 255 
10 70.6889 -92 255 0 255 255 
10 70.2038 -91 255 0 255 255 
10 69.7186 -90 255 0 255 255 
10 69.2334 -89 255 0 255 255 
10 68.7482 -88 255 0 255 255 
10 68.263 -87 255 0 255 255 
10 67.7778 -86 255 0 255 255 
10 67.2926 -85 255 0 255 255 
10 66.8075 -84 255 0 255 255 
10 66.3223 -83 255 0 255 255 
10 65.8371 -82 255 0 255 255 
10 65.3519 -81 255 0 255 255 
10 64.8667 -80 255 0 255 255 
10 64.3816 -79 255 0 255 255 
10 63.8964 -78 255 0 255 255 
10 63.4112 -77 255 0 255 255 
10 62.926 -76 255 0 255 255 
10 62.4408 -75 255 0 255 255 
10 61.9556 -74 255 0 255 255 
10 61.4705 -73 255 0 255 255 
10 60.9853 -72 255 0 255 255 
10 60.5001 -71 255 0 255 255 
10 60.0149 -70 255 0 255 255 
10 59.5297 -69 255 0 255 255 
10 59.0445 -68 255 0 255 255 
10 58.5594 -67 255 0 255 255 
10 58.0742 -66 255 0 255 255 
10 57.589 -65 255 0 255 255 
10 57.1038 -64 255 0 255 255 
10 56.6186 -63 255 0 255 255 
10 56.1334 -62 255 0 255 255 
10 55.6483 -61 255 0 255 255 
10 55.1631 -60 255 0 255 255 
10 54.6779 -59 255 0 255 255 
10 54.1927 -58 255 0 255 255 
10 53.7075 -57 255 0 255 255 
10 53.2223 -56 255 0 255 255 
10 52.7372 -55 255 0 255 255 
10 52.252 -54 255 0 255 255 
10 51.7668 -53 255 0 255 255 
10 51.2816 -52 255 0 255 255 
10 50.7964 -51 255 0 255 255 
10 50.3112 -50 255 0 255 255 
10 49.8261 -49 255 0 255 255 
10 49.3409 -48 255 0 255 255 
10 48.8557 -47 255 0 255 255 
10 48.3705 -46 255 0 255 255 
10 47.8853 -45 255 0 255 255 
10 47.4002 -44 255 0 255 255 
10 46.915 -43 255 0 255 255 
10 46.4298 -42 255 0 255 255 
10 45.9446 -41 255 0 255 255 
10 45.4594 -40 255 0 255 255 
10 44.9742 -39 255 0 255 255 
10 44.4891 -38 255 0 255 255 
10 44.0039 -37 255 0 255 255 
10 43.5187 -36 255 0 255 255 
10 43.0335 -35 255 0 255 255 
10 42.5483 -34 255 0 255 255 
10 42.0631 -33 255 0 255 255 
10 41.578 -32 255 0 255 255 
10 41.0928 -31 255 0 255 255 
10 40.6076 -30 255 0 255 255 
10 40.1224 -29 255 0 255 255 
10 39.6372 -28 255 0 255 255 
10 39.152 -27 255 0 255 255 
10 38.6669 -26 255 0 255 255 
10 38.1817 -25 255 0 255 255 
10 37.6965 -24 255 0 255 255 
10 37.2113 -23 255 0 255 255 
10 36.7261 -22 255 0 255 255 
10 36.2409 -21 255 0 255 255 
10 35.7558 -20 255 0 255 255 
10 35.2706 -19 255 0 255 255 
10 34.7854 -18 255 0 255 255 
10 34.3002 -17 255 0 255 255 
10 33.815 -16 255 0 255 255 
10 33.3298 -15 255 0 255 255 
10 32.8447 -14 255 0 255 255 
10 32.3595 -13 255 0 255 255 
10 31.8743 -12 255 0 255 255 
10 31.3891 -11 255 0 255 255 
10 30.9039 -10 255 0 255 255 
10 30.4188 -9 255 0 255 255 
10 29.9336 -8 255 0 255 255 
10 29.4484 -7 255 0 255 255 
10 28.9632 -6 255 0 255 255 
10 28.478 -5 255 0 255 255 
10 27.9928 -4 255 0 255 255 
10 27.5077 -3 255 0 255 255 
10 27.0225 -2 255 0 255 255 
10 26.5373 -1 255 0 255 255 
10 26.0521 0 255 0 255 255 
10 25.5669 1 255 0 255 255 
10 25.0817 2 255 0 255 255 
10 24.5966 3 255 0 255 255 
10 24.1114 4 255 0 255 255 
10 23.6262 5 255 0 255 255 
10 23.141 6 255 0 255 255 
10 22.6558 7 255 0 255 255 
10 22.1706 8 255 0 255 255 
10 21.6855 9 255 0 255 255 
10 21.2003 10 255 0 255 255 
10 20.7151 11 255 0 255 255 
10 20.2299 12 255 0 255 255 
10 19.7447 13 255 0 255 255 
10 19.2595 14 255 0 255 255 
10 18.7744 15 255 0 255 255 
10 18.2892 16 255 0 255 255 
10 17.804 17 255 0 255 255 
10 17.3188 18 255 0 255 255 
10 16.8336 19 255 0 255 255 
10 16.3484 20 255 0 255 255 
10 15.8633 21 255 0 255 255 
10 15.3781 22 255 0 255 255 
10 14.8929 23 255 0 255 255 
10 14.4077 24 255 0 255 255 
10 13.9225 25 255 0 255 255 
10 13.4373 26 255 0 255 255 
10 12.9522 27 255 0 255 255 
10 12.467 28 255 0 255 255 
10 11.9818 29 255 0 255 255 
10 11.4966 30 255 0 255 255 
10 11.0114 31 255 0 255 255 
10 10.5263 32 255 0 255 255 
10 10.0411 33 255 0 255 255 
10 9.55589 34 255 0 255 255 
10 9.0707 35 255 0 255 255 
10 8.58552 36 255 0 255 255 
10 8.10034 37 255 0 255 255 
10 7.61515 38 255 0 255 255 
10 7.12997 39 255 0 255 255 
10 6.64479 40 255 0 255 255 
10 6.1596 41 255 0 255 255 
10 5.67442 42 255 0 255 255 
10 5.18924 43 255 0 255 255 
10 4.70406 44 255 0 255 255 
10 4.21887 45 255 0 255 255 
10 3.73369 46 255 0 255 255 
10 3.24851 47 255 0 255 255 
10 2.76332 48 255 0 255 255 
10 2.27814 49 255 0 255 255 
10 1.79296 50 255 0 255 255 
10 1.30778 51 255 0 255 255 
10 0.822593 52 255 0 255 255 
10 0.33741 53 255 0 255 255 
10 -0.147773 54 255 0 255 255 
10 -0.632956 55 255 0 255 255 
10 -1.11814 56 255 0 255 255 
10 -1.60332 57 255 0 255 255 
10 -2.0885 58 255 0 255 255 
10 -2.57369 59 255 0 255 255 
10 -3.05887 60 255 0 255 255 
10 -3.54405 61 255 0 255 255 
10 -4.02924 62 255 0 255 255 
10 -4.51442 63 255 0 255 255 
10 -4.9996 64 255 0 255 255 
10 -5.48479 65 255 0 255 255 
10 -5.96997 66 255 0 255 255 
10 -6.45515 67 255 0 255 255 
10 -6.94033 68 255 0 255 255 
10 -7.42552 69 255 0 255 255 
10 -7.9107 70 255 0 255 255 
10 -8.39588 71 255 0 255 255 
10 -8.88107 72 255 0 255 255 
10 -9.36625 73 255 0 255 255 
10 -9.85143 74 255 0 255 255 
10 -10.3366 75 255 0 255 255 
10 -10.8218 76 255 0 255 255 
10 -11.307 77 255 0 255 255 
10 -11.7922 78 255 0 255 255 
10 -12.2773 79 255 0 255 255 
10 -12.7625 80 255 0 255 255 
10 -13.2477 81 255 0 255 255 
10 -13.7329 82 255 0 255 255 
10 -14.2181 83 255 0 255 255 
10 -14.7033 84 255 0 255 255 
10 -15.1884 85 255 0 255 255 
10 -15.6736 86 255 0 255 255 
10 -16.1588 87 255 0 255 255 
10 -16.644 88 255 0 255 255 
