ply
format ascii 1.0
element vertex 1616
property float x
property float y
property float z
property uchar red
property uchar green
property uchar blue
property uchar alpha
end_header
-1 21.3499 -55 255 0 255 255 
-1 21.0188 -54 255 0 255 255 
-1 20.6877 -53 255 0 255 255 
-1 20.3567 -52 255 0 255 255 
-1 20.0256 -51 255 0 255 255 
-1 19.6945 -50 255 0 255 255 
-1 19.3635 -49 255 0 255 255 
-1 19.0324 -48 255 0 255 255 
-1 18.7013 -47 255 0 255 255 
-1 18.3703 -46 255 0 255 255 
-1 18.0392 -45 255 0 255 255 
-1 17.7082 -44 255 0 255 255 
-1 17.3771 -43 255 0 255 255 
-1 17.046 -42 255 0 255 255 
-1 16.715 -41 255 0 255 255 
-1 16.3839 -40 255 0 255 255 
-1 16.0528 -39 255 0 255 255 
-1 15.7218 -38 255 0 255 255 
-1 15.3907 -37 255 0 255 255 
-1 15.0596 -36 255 0 255 255 
-1 14.7286 -35 255 0 255 255 
-1 14.3975 -34 255 0 255 255 
-1 14.0665 -33 255 0 255 255 
-1 13.7354 -32 255 0 255 255 
-1 13.4043 -31 255 0 255 255 
-1 13.0733 -30 255 0 255 255 
-1 12.7422 -29 255 0 255 255 
-1 12.4111 -28 255 0 255 255 
-1 12.0801 -27 255 0 255 255 
-1 11.749 -26 255 0 255 255 
-1 11.4179 -25 255 0 255 255 
-1 11.0869 -24 255 0 255 255 
-1 10.7558 -23 255 0 255 255 
-1 10.4247 -22 255 0 255 255 
-1 10.0937 -21 255 0 255 255 
-1 9.76262 -20 255 0 255 255 
-1 9.43156 -19 255 0 255 255 
-1 9.10049 -18 255 0 255 255 
-1 8.76943 -17 255 0 255 255 
-1 8.43836 -16 255 0 255 255 
-1 8.1073 -15 255 0 255 255 
-1 7.77624 -14 255 0 255 255 
-1 7.44517 -13 255 0 255 255 
-1 7.11411 -12 255 0 255 255 
-1 6.78305 -11 255 0 255 255 
-1 6.45198 -10 255 0 255 255 
-1 6.12092 -9 255 0 255 255 
-1 5.78985 -8 255 0 255 255 
-1 5.45879 -7 255 0 255 255 
-1 5.12773 -6 255 0 255 255 
-1 4.79666 -5 255 0 255 255 
-1 4.4656 -4 255 0 255 255 
-1 4.13454 -3 255 0 255 255 
-1 3.80347 -2 255 0 255 255 
-1 3.47241 -1 255 0 255 255 
-1 3.14134 0 255 0 255 255 
-1 2.81028 1 255 0 255 255 
-1 2.47922 2 255 0 255 255 
-1 2.14815 3 255 0 255 255 
-1 1.81709 4 255 0 255 255 
-1 1.48602 5 255 0 255 255 
-1 1.15496 6 255 0 255 255 
-1 0.823897 7 255 0 255 255 
-1 0.492833 8 255 0 255 255 
-1 0.161769 9 255 0 255 255 
-1 -0.169295 10 255 0 255 255 
-1 -0.500359 11 255 0 255 255 
-1 -0.831423 12 255 0 255 255 
-1 -1.16249 13 255 0 255 255 
-1 -1.49355 14 255 0 255 255 
-1 -1.82461 15 255 0 255 255 
-1 -2.15568 16 255 0 255 255 
-1 -2.48674 17 255 0 255 255 
-1 -2.81781 18 255 0 255 255 
-1 -3.14887 19 255 0 255 255 
-1 -3.47993 20 255 0 255 255 
-1 -3.811 21 255 0 255 255 
-1 -4.14206 22 255 0 255 255 
-1 -4.47313 23 255 0 255 255 
-1 -4.80419 24 255 0 255 255 
-1 -5.13525 25 255 0 255 255 
-1 -5.46632 26 255 0 255 255 
-1 -5.79738 27 255 0 255 255 
-1 -6.12844 28 255 0 255 255 
-1 -6.45951 29 255 0 255 255 
-1 -6.79057 30 255 0 255 255 
-1 -7.12164 31 255 0 255 255 
-1 -7.4527 32 255 0 255 255 
-1 -7.78376 33 255 0 255 255 
-1 -8.11483 34 255 0 255 255 
-1 -8.44589 35 255 0 255 255 
-1 -8.77696 36 255 0 255 255 
-1 -9.10802 37 255 0 255 255 
-1 -9.43908 38 255 0 255 255 
-1 -9.77015 39 255 0 255 255 
-1 -10.1012 40 255 0 255 255 
-1 -10.4323 41 255 0 255 255 
-1 -10.7633 42 255 0 255 255 
-1 -11.0944 43 255 0 255 255 
-1 -11.4255 44 255 0 255 255 
-1 -11.7565 45 255 0 255 255 
-1 -12.0876 46 255 0 255 255 
-1 -12.4187 47 255 0 255 255 
-1 -12.7497 48 255 0 255 255 
-1 -13.0808 49 255 0 255 255 
-1 -13.4118 50 255 0 255 255 
-1 -13.7429 51 255 0 255 255 
-1 -14.074 52 255 0 255 255 
-1 -14.405 53 255 0 255 255 
-1 -14.7361 54 255 0 255 255 
-1 -15.0672 55 255 0 255 255 
-1 -15.3982 56 255 0 255 255 
-1 -15.7293 57 255 0 255 255 
-1 -16.0604 58 255 0 255 255 
-1 -16.3914 59 255 0 255 255 
-1 -16.7225 60 255 0 255 255 
-1 -17.0536 61 255 0 255 255 
-1 -17.3846 62 255 0 255 255 
-1 -17.7157 63 255 0 255 255 
-1 -18.0467 64 255 0 255 255 
-1 -18.3778 65 255 0 255 255 
-1 -18.7089 66 255 0 255 255 
-1 -19.0399 67 255 0 255 255 
-1 -19.371 68 255 0 255 255 
-1 -19.7021 69 255 0 255 255 
-1 -20.0331 70 255 0 255 255 
-1 -20.3642 71 255 0 255 255 
-1 -20.6953 72 255 0 255 255 
-1 -21.0263 73 255 0 255 255 
-1 -21.3574 74 255 0 255 255 
-1 -21.6884 75 255 0 255 255 
-1 -22.0195 76 255 0 255 255 
-1 -22.3506 77 255 0 255 255 
-1 -22.6816 78 255 0 255 255 
-1 -23.0127 79 255 0 255 255 
-1 -23.3438 80 255 0 255 255 
-1 -23.6748 81 255 0 255 255 
-1 -24.0059 82 255 0 255 255 
-1 -24.337 83 255 0 255 255 
-1 -24.668 84 255 0 255 255 
-1 -24.9991 85 255 0 255 255 
-1 -25.3301 86 255 0 255 255 
-1 -25.6612 87 255 0 255 255 
-1 -25.9923 88 255 0 255 255 
-1 -26.3233 89 255 0 255 255 
-1 -26.6544 90 255 0 255 255 
-1 -26.9855 91 255 0 255 255 
-1 -27.3165 92 255 0 255 255 
-1 -27.6476 93 255 0 255 255 
-1 -27.9787 94 255 0 255 255 
-1 -28.3097 95 255 0 255 255 
-1 -28.6408 96 255 0 255 255 
-1 -28.9719 97 255 0 255 255 
-1 -29.3029 98 255 0 255 255 
-1 -29.634 99 255 0 255 255 
-1 -29.965 100 255 0 255 255 
0 43.3082 -100 255 0 255 255 
0 42.9771 -99 255 0 255 255 
0 42.6461 -98 255 0 255 255 
0 42.315 -97 255 0 255 255 
0 41.984 -96 255 0 255 255 
0 41.6529 -95 255 0 255 255 
0 41.3218 -94 255 0 255 255 
0 40.9908 -93 255 0 255 255 
0 40.6597 -92 255 0 255 255 
0 40.3286 -91 255 0 255 255 
0 39.9976 -90 255 0 255 255 
0 39.6665 -89 255 0 255 255 
0 39.3354 -88 255 0 255 255 
0 39.0044 -87 255 0 255 255 
0 38.6733 -86 255 0 255 255 
0 38.3423 -85 255 0 255 255 
0 38.0112 -84 255 0 255 255 
0 37.6801 -83 255 0 255 255 
0 37.3491 -82 255 0 255 255 
0 37.018 -81 255 0 255 255 
0 36.6869 -80 255 0 255 255 
0 36.3559 -79 255 0 255 255 
0 36.0248 -78 255 0 255 255 
0 35.6937 -77 255 0 255 255 
0 35.3627 -76 255 0 255 255 
0 35.0316 -75 255 0 255 255 
0 34.7006 -74 255 0 255 255 
0 34.3695 -73 255 0 255 255 
0 34.0384 -72 255 0 255 255 
0 33.7074 -71 255 0 255 255 
0 33.3763 -70 255 0 255 255 
0 33.0452 -69 255 0 255 255 
0 32.7142 -68 255 0 255 255 
0 32.3831 -67 255 0 255 255 
0 32.052 -66 255 0 255 255 
0 31.721 -65 255 0 255 255 
0 31.3899 -64 255 0 255 255 
0 31.0588 -63 255 0 255 255 
0 30.7278 -62 255 0 255 255 
0 30.3967 -61 255 0 255 255 
0 30.0657 -60 255 0 255 255 
0 29.7346 -59 255 0 255 255 
0 29.4035 -58 255 0 255 255 
0 29.0725 -57 255 0 255 255 
0 28.7414 -56 255 0 255 255 
0 28.4103 -55 255 0 255 255 
0 28.0793 -54 255 0 255 255 
0 27.7482 -53 255 0 255 255 
0 27.4171 -52 255 0 255 255 
0 27.0861 -51 255 0 255 255 
0 26.755 -50 255 0 255 255 
0 26.424 -49 255 0 255 255 
0 26.0929 -48 255 0 255 255 
0 25.7618 -47 255 0 255 255 
0 25.4308 -46 255 0 255 255 
0 25.0997 -45 255 0 255 255 
0 24.7686 -44 255 0 255 255 
0 24.4376 -43 255 0 255 255 
0 24.1065 -42 255 0 255 255 
0 23.7754 -41 255 0 255 255 
0 23.4444 -40 255 0 255 255 
0 23.1133 -39 255 0 255 255 
0 22.7823 -38 255 0 255 255 
0 22.4512 -37 255 0 255 255 
0 22.1201 -36 255 0 255 255 
0 21.7891 -35 255 0 255 255 
0 21.458 -34 255 0 255 255 
0 21.1269 -33 255 0 255 255 
0 20.7959 -32 255 0 255 255 
0 20.4648 -31 255 0 255 255 
0 20.1337 -30 255 0 255 255 
0 19.8027 -29 255 0 255 255 
0 19.4716 -28 255 0 255 255 
0 19.1406 -27 255 0 255 255 
0 18.8095 -26 255 0 255 255 
0 18.4784 -25 255 0 255 255 
0 18.1474 -24 255 0 255 255 
0 17.8163 -23 255 0 255 255 
0 17.4852 -22 255 0 255 255 
0 17.1542 -21 255 0 255 255 
0 16.8231 -20 255 0 255 255 
0 16.492 -19 255 0 255 255 
0 16.161 -18 255 0 255 255 
0 15.8299 -17 255 0 255 255 
0 15.4988 -16 255 0 255 255 
0 15.1678 -15 255 0 255 255 
0 14.8367 -14 255 0 255 255 
0 14.5057 -13 255 0 255 255 
0 14.1746 -12 255 0 255 255 
0 13.8435 -11 255 0 255 255 
0 13.5125 -10 255 0 255 255 
0 13.1814 -9 255 0 255 255 
0 12.8503 -8 255 0 255 255 
0 12.5193 -7 255 0 255 255 
0 12.1882 -6 255 0 255 255 
0 11.8571 -5 255 0 255 255 
0 11.5261 -4 255 0 255 255 
0 11.195 -3 255 0 255 255 
0 10.864 -2 255 0 255 255 
0 10.5329 -1 255 0 255 255 
0 10.2018 0 255 0 255 255 
0 9.87076 1 255 0 255 255 
0 9.5397 2 255 0 255 255 
0 9.20863 3 255 0 255 255 
0 8.87757 4 255 0 255 255 
0 8.54651 5 255 0 255 255 
0 8.21544 6 255 0 255 255 
0 7.88438 7 255 0 255 255 
0 7.55331 8 255 0 255 255 
0 7.22225 9 255 0 255 255 
0 6.89119 10 255 0 255 255 
0 6.56012 11 255 0 255 255 
0 6.22906 12 255 0 255 255 
0 5.898 13 255 0 255 255 
0 5.56693 14 255 0 255 255 
0 5.23587 15 255 0 255 255 
0 4.9048 16 255 0 255 255 
0 4.57374 17 255 0 255 255 
0 4.24268 18 255 0 255 255 
0 3.91161 19 255 0 255 255 
0 3.58055 20 255 0 255 255 
0 3.24948 21 255 0 255 255 
0 2.91842 22 255 0 255 255 
0 2.58736 23 255 0 255 255 
0 2.25629 24 255 0 255 255 
0 1.92523 25 255 0 255 255 
0 1.59417 26 255 0 255 255 
0 1.2631 27 255 0 255 255 
0 0.932037 28 255 0 255 255 
0 0.600974 29 255 0 255 255 
0 0.26991 30 255 0 255 255 
0 -0.0611541 31 255 0 255 255 
0 -0.392218 32 255 0 255 255 
0 -0.723282 33 255 0 255 255 
0 -1.05435 34 255 0 255 255 
0 -1.38541 35 255 0 255 255 
0 -1.71647 36 255 0 255 255 
0 -2.04754 37 255 0 255 255 
0 -2.3786 38 255 0 255 255 
0 -2.70967 39 255 0 255 255 
0 -3.04073 40 255 0 255 255 
0 -3.37179 41 255 0 255 255 
0 -3.70286 42 255 0 255 255 
0 -4.03392 43 255 0 255 255 
0 -4.36498 44 255 0 255 255 
0 -4.69605 45 255 0 255 255 
0 -5.02711 46 255 0 255 255 
0 -5.35818 47 255 0 255 255 
0 -5.68924 48 255 0 255 255 
0 -6.0203 49 255 0 255 255 
0 -6.35137 50 255 0 255 255 
0 -6.68243 51 255 0 255 255 
0 -7.0135 52 255 0 255 255 
0 -7.34456 53 255 0 255 255 
0 -7.67562 54 255 0 255 255 
0 -8.00669 55 255 0 255 255 
0 -8.33775 56 255 0 255 255 
0 -8.66881 57 255 0 255 255 
0 -8.99988 58 255 0 255 255 
0 -9.33094 59 255 0 255 255 
0 -9.66201 60 255 0 255 255 
0 -9.99307 61 255 0 255 255 
0 -10.3241 62 255 0 255 255 
0 -10.6552 63 255 0 255 255 
0 -10.9863 64 255 0 255 255 
0 -11.3173 65 255 0 255 255 
0 -11.6484 66 255 0 255 255 
0 -11.9795 67 255 0 255 255 
0 -12.3105 68 255 0 255 255 
0 -12.6416 69 255 0 255 255 
0 -12.9726 70 255 0 255 255 
0 -13.3037 71 255 0 255 255 
0 -13.6348 72 255 0 255 255 
0 -13.9658 73 255 0 255 255 
0 -14.2969 74 255 0 255 255 
0 -14.628 75 255 0 255 255 
0 -14.959 76 255 0 255 255 
0 -15.2901 77 255 0 255 255 
0 -15.6212 78 255 0 255 255 
0 -15.9522 79 255 0 255 255 
0 -16.2833 80 255 0 255 255 
0 -16.6143 81 255 0 255 255 
0 -16.9454 82 255 0 255 255 
0 -17.2765 83 255 0 255 255 
0 -17.6075 84 255 0 255 255 
0 -17.9386 85 255 0 255 255 
0 -18.2697 86 255 0 255 255 
0 -18.6007 87 255 0 255 255 
0 -18.9318 88 255 0 255 255 
0 -19.2629 89 255 0 255 255 
0 -19.5939 90 255 0 255 255 
0 -19.925 91 255 0 255 255 
0 -20.2561 92 255 0 255 255 
0 -20.5871 93 255 0 255 255 
0 -20.9182 94 255 0 255 255 
0 -21.2492 95 255 0 255 255 
0 -21.5803 96 255 0 255 255 
0 -21.9114 97 255 0 255 255 
0 -22.2424 98 255 0 255 255 
0 -22.5735 99 255 0 255 255 
0 -22.9046 100 255 0 255 255 
1 50.3687 -100 255 0 255 255 
1 50.0376 -99 255 0 255 255 
1 49.7066 -98 255 0 255 255 
1 49.3755 -97 255 0 255 255 
1 49.0444 -96 255 0 255 255 
1 48.7134 -95 255 0 255 255 
1 48.3823 -94 255 0 255 255 
1 48.0512 -93 255 0 255 255 
1 47.7202 -92 255 0 255 255 
1 47.3891 -91 255 0 255 255 
1 47.0581 -90 255 0 255 255 
1 46.727 -89 255 0 255 255 
1 46.3959 -88 255 0 255 255 
1 46.0649 -87 255 0 255 255 
1 45.7338 -86 255 0 255 255 
1 45.4027 -85 255 0 255 255 
1 45.0717 -84 255 0 255 255 
1 44.7406 -83 255 0 255 255 
1 44.4095 -82 255 0 255 255 
1 44.0785 -81 255 0 255 255 
1 43.7474 -80 255 0 255 255 
1 43.4164 -79 255 0 255 255 
1 43.0853 -78 255 0 255 255 
1 42.7542 -77 255 0 255 255 
1 42.4232 -76 255 0 255 255 
1 42.0921 -75 255 0 255 255 
1 41.761 -74 255 0 255 255 
1 41.43 -73 255 0 255 255 
1 41.0989 -72 255 0 255 255 
1 40.7678 -71 255 0 255 255 
1 40.4368 -70 255 0 255 255 
1 40.1057 -69 255 0 255 255 
1 39.7747 -68 255 0 255 255 
1 39.4436 -67 255 0 255 255 
1 39.1125 -66 255 0 255 255 
1 38.7815 -65 255 0 255 255 
1 38.4504 -64 255 0 255 255 
1 38.1193 -63 255 0 255 255 
1 37.7883 -62 255 0 255 255 
1 37.4572 -61 255 0 255 255 
1 37.1261 -60 255 0 255 255 
1 36.7951 -59 255 0 255 255 
1 36.464 -58 255 0 255 255 
1 36.1329 -57 255 0 255 255 
1 35.8019 -56 255 0 255 255 
1 35.4708 -55 255 0 255 255 
1 35.1398 -54 255 0 255 255 
1 34.8087 -53 255 0 255 255 
1 34.4776 -52 255 0 255 255 
1 34.1466 -51 255 0 255 255 
1 33.8155 -50 255 0 255 255 
1 33.4844 -49 255 0 255 255 
1 33.1534 -48 255 0 255 255 
1 32.8223 -47 255 0 255 255 
1 32.4912 -46 255 0 255 255 
1 32.1602 -45 255 0 255 255 
1 31.8291 -44 255 0 255 255 
1 31.4981 -43 255 0 255 255 
1 31.167 -42 255 0 255 255 
1 30.8359 -41 255 0 255 255 
1 30.5049 -40 255 0 255 255 
1 30.1738 -39 255 0 255 255 
1 29.8427 -38 255 0 255 255 
1 29.5117 -37 255 0 255 255 
1 29.1806 -36 255 0 255 255 
1 28.8495 -35 255 0 255 255 
1 28.5185 -34 255 0 255 255 
1 28.1874 -33 255 0 255 255 
1 27.8564 -32 255 0 255 255 
1 27.5253 -31 255 0 255 255 
1 27.1942 -30 255 0 255 255 
1 26.8632 -29 255 0 255 255 
1 26.5321 -28 255 0 255 255 
1 26.201 -27 255 0 255 255 
1 25.87 -26 255 0 255 255 
1 25.5389 -25 255 0 255 255 
1 25.2078 -24 255 0 255 255 
1 24.8768 -23 255 0 255 255 
1 24.5457 -22 255 0 255 255 
1 24.2146 -21 255 0 255 255 
1 23.8836 -20 255 0 255 255 
1 23.5525 -19 255 0 255 255 
1 23.2215 -18 255 0 255 255 
1 22.8904 -17 255 0 255 255 
1 22.5593 -16 255 0 255 255 
1 22.2283 -15 255 0 255 255 
1 21.8972 -14 255 0 255 255 
1 21.5661 -13 255 0 255 255 
1 21.2351 -12 255 0 255 255 
1 20.904 -11 255 0 255 255 
1 20.5729 -10 255 0 255 255 
1 20.2419 -9 255 0 255 255 
1 19.9108 -8 255 0 255 255 
1 19.5798 -7 255 0 255 255 
1 19.2487 -6 255 0 255 255 
1 18.9176 -5 255 0 255 255 
1 18.5866 -4 255 0 255 255 
1 18.2555 -3 255 0 255 255 
1 17.9244 -2 255 0 255 255 
1 17.5934 -1 255 0 255 255 
1 17.2623 0 255 0 255 255 
1 16.9312 1 255 0 255 255 
1 16.6002 2 255 0 255 255 
1 16.2691 3 255 0 255 255 
1 15.9381 4 255 0 255 255 
1 15.607 5 255 0 255 255 
1 15.2759 6 255 0 255 255 
1 14.9449 7 255 0 255 255 
1 14.6138 8 255 0 255 255 
1 14.2827 9 255 0 255 255 
1 13.9517 10 255 0 255 255 
1 13.6206 11 255 0 255 255 
1 13.2895 12 255 0 255 255 
1 12.9585 13 255 0 255 255 
1 12.6274 14 255 0 255 255 
1 12.2963 15 255 0 255 255 
1 11.9653 16 255 0 255 255 
1 11.6342 17 255 0 255 255 
1 11.3032 18 255 0 255 255 
1 10.9721 19 255 0 255 255 
1 10.641 20 255 0 255 255 
1 10.31 21 255 0 255 255 
1 9.9789 22 255 0 255 255 
1 9.64784 23 255 0 255 255 
1 9.31678 24 255 0 255 255 
1 8.98571 25 255 0 255 255 
1 8.65465 26 255 0 255 255 
1 8.32358 27 255 0 255 255 
1 7.99252 28 255 0 255 255 
1 7.66146 29 255 0 255 255 
1 7.33039 30 255 0 255 255 
1 6.99933 31 255 0 255 255 
1 6.66826 32 255 0 255 255 
1 6.3372 33 255 0 255 255 
1 6.00614 34 255 0 255 255 
1 5.67507 35 255 0 255 255 
1 5.34401 36 255 0 255 255 
1 5.01294 37 255 0 255 255 
1 4.68188 38 255 0 255 255 
1 4.35082 39 255 0 255 255 
1 4.01975 40 255 0 255 255 
1 3.68869 41 255 0 255 255 
1 3.35763 42 255 0 255 255 
1 3.02656 43 255 0 255 255 
1 2.6955 44 255 0 255 255 
1 2.36443 45 255 0 255 255 
1 2.03337 46 255 0 255 255 
1 1.70231 47 255 0 255 255 
1 1.37124 48 255 0 255 255 
1 1.04018 49 255 0 255 255 
1 0.709115 50 255 0 255 255 
1 0.378051 51 255 0 255 255 
1 0.0469869 52 255 0 255 255 
1 -0.284077 53 255 0 255 255 
1 -0.615141 54 255 0 255 255 
1 -0.946205 55 255 0 255 255 
1 -1.27727 56 255 0 255 255 
1 -1.60833 57 255 0 255 255 
1 -1.9394 58 255 0 255 255 
1 -2.27046 59 255 0 255 255 
1 -2.60152 60 255 0 255 255 
1 -2.93259 61 255 0 255 255 
1 -3.26365 62 255 0 255 255 
1 -3.59472 63 255 0 255 255 
1 -3.92578 64 255 0 255 255 
1 -4.25684 65 255 0 255 255 
1 -4.58791 66 255 0 255 255 
1 -4.91897 67 255 0 255 255 
1 -5.25003 68 255 0 255 255 
1 -5.5811 69 255 0 255 255 
1 -5.91216 70 255 0 255 255 
1 -6.24323 71 255 0 255 255 
1 -6.57429 72 255 0 255 255 
1 -6.90535 73 255 0 255 255 
1 -7.23642 74 255 0 255 255 
1 -7.56748 75 255 0 255 255 
1 -7.89855 76 255 0 255 255 
1 -8.22961 77 255 0 255 255 
1 -8.56067 78 255 0 255 255 
1 -8.89174 79 255 0 255 255 
1 -9.2228 80 255 0 255 255 
1 -9.55387 81 255 0 255 255 
1 -9.88493 82 255 0 255 255 
1 -10.216 83 255 0 255 255 
1 -10.5471 84 255 0 255 255 
1 -10.8781 85 255 0 255 255 
1 -11.2092 86 255 0 255 255 
1 -11.5402 87 255 0 255 255 
1 -11.8713 88 255 0 255 255 
1 -12.2024 89 255 0 255 255 
1 -12.5334 90 255 0 255 255 
1 -12.8645 91 255 0 255 255 
1 -13.1956 92 255 0 255 255 
1 -13.5266 93 255 0 255 255 
1 -13.8577 94 255 0 255 255 
1 -14.1888 95 255 0 255 255 
1 -14.5198 96 255 0 255 255 
1 -14.8509 97 255 0 255 255 
1 -15.182 98 255 0 255 255 
1 -15.513 99 255 0 255 255 
1 -15.8441 100 255 0 255 255 
2 57.4292 -100 255 0 255 255 
2 57.0981 -99 255 0 255 255 
2 56.767 -98 255 0 255 255 
2 56.436 -97 255 0 255 255 
2 56.1049 -96 255 0 255 255 
2 55.7739 -95 255 0 255 255 
2 55.4428 -94 255 0 255 255 
2 55.1117 -93 255 0 255 255 
2 54.7807 -92 255 0 255 255 
2 54.4496 -91 255 0 255 255 
2 54.1185 -90 255 0 255 255 
2 53.7875 -89 255 0 255 255 
2 53.4564 -88 255 0 255 255 
2 53.1253 -87 255 0 255 255 
2 52.7943 -86 255 0 255 255 
2 52.4632 -85 255 0 255 255 
2 52.1322 -84 255 0 255 255 
2 51.8011 -83 255 0 255 255 
2 51.47 -82 255 0 255 255 
2 51.139 -81 255 0 255 255 
2 50.8079 -80 255 0 255 255 
2 50.4768 -79 255 0 255 255 
2 50.1458 -78 255 0 255 255 
2 49.8147 -77 255 0 255 255 
2 49.4836 -76 255 0 255 255 
2 49.1526 -75 255 0 255 255 
2 48.8215 -74 255 0 255 255 
2 48.4905 -73 255 0 255 255 
2 48.1594 -72 255 0 255 255 
2 47.8283 -71 255 0 255 255 
2 47.4973 -70 255 0 255 255 
2 47.1662 -69 255 0 255 255 
2 46.8351 -68 255 0 255 255 
2 46.5041 -67 255 0 255 255 
2 46.173 -66 255 0 255 255 
2 45.8419 -65 255 0 255 255 
2 45.5109 -64 255 0 255 255 
2 45.1798 -63 255 0 255 255 
2 44.8488 -62 255 0 255 255 
2 44.5177 -61 255 0 255 255 
2 44.1866 -60 255 0 255 255 
2 43.8556 -59 255 0 255 255 
2 43.5245 -58 255 0 255 255 
2 43.1934 -57 255 0 255 255 
2 42.8624 -56 255 0 255 255 
2 42.5313 -55 255 0 255 255 
2 42.2002 -54 255 0 255 255 
2 41.8692 -53 255 0 255 255 
2 41.5381 -52 255 0 255 255 
2 41.207 -51 255 0 255 255 
2 40.876 -50 255 0 255 255 
2 40.5449 -49 255 0 255 255 
2 40.2139 -48 255 0 255 255 
2 39.8828 -47 255 0 255 255 
2 39.5517 -46 255 0 255 255 
2 39.2207 -45 255 0 255 255 
2 38.8896 -44 255 0 255 255 
2 38.5585 -43 255 0 255 255 
2 38.2275 -42 255 0 255 255 
2 37.8964 -41 255 0 255 255 
2 37.5653 -40 255 0 255 255 
2 37.2343 -39 255 0 255 255 
2 36.9032 -38 255 0 255 255 
2 36.5722 -37 255 0 255 255 
2 36.2411 -36 255 0 255 255 
2 35.91 -35 255 0 255 255 
2 35.579 -34 255 0 255 255 
2 35.2479 -33 255 0 255 255 
2 34.9168 -32 255 0 255 255 
2 34.5858 -31 255 0 255 255 
2 34.2547 -30 255 0 255 255 
2 33.9236 -29 255 0 255 255 
2 33.5926 -28 255 0 255 255 
2 33.2615 -27 255 0 255 255 
2 32.9305 -26 255 0 255 255 
2 32.5994 -25 255 0 255 255 
2 32.2683 -24 255 0 255 255 
2 31.9373 -23 255 0 255 255 
2 31.6062 -22 255 0 255 255 
2 31.2751 -21 255 0 255 255 
2 30.9441 -20 255 0 255 255 
2 30.613 -19 255 0 255 255 
2 30.2819 -18 255 0 255 255 
2 29.9509 -17 255 0 255 255 
2 29.6198 -16 255 0 255 255 
2 29.2887 -15 255 0 255 255 
2 28.9577 -14 255 0 255 255 
2 28.6266 -13 255 0 255 255 
2 28.2956 -12 255 0 255 255 
2 27.9645 -11 255 0 255 255 
2 27.6334 -10 255 0 255 255 
2 27.3024 -9 255 0 255 255 
2 26.9713 -8 255 0 255 255 
2 26.6402 -7 255 0 255 255 
2 26.3092 -6 255 0 255 255 
2 25.9781 -5 255 0 255 255 
2 25.647 -4 255 0 255 255 
2 25.316 -3 255 0 255 255 
2 24.9849 -2 255 0 255 255 
2 24.6539 -1 255 0 255 255 
2 24.3228 0 255 0 255 255 
2 23.9917 1 255 0 255 255 
2 23.6607 2 255 0 255 255 
2 23.3296 3 255 0 255 255 
2 22.9985 4 255 0 255 255 
2 22.6675 5 255 0 255 255 
2 22.3364 6 255 0 255 255 
2 22.0053 7 255 0 255 255 
2 21.6743 8 255 0 255 255 
2 21.3432 9 255 0 255 255 
2 21.0122 10 255 0 255 255 
2 20.6811 11 255 0 255 255 
2 20.35 12 255 0 255 255 
2 20.019 13 255 0 255 255 
2 19.6879 14 255 0 255 255 
2 19.3568 15 255 0 255 255 
2 19.0258 16 255 0 255 255 
2 18.6947 17 255 0 255 255 
2 18.3636 18 255 0 255 255 
2 18.0326 19 255 0 255 255 
2 17.7015 20 255 0 255 255 
2 17.3704 21 255 0 255 255 
2 17.0394 22 255 0 255 255 
2 16.7083 23 255 0 255 255 
2 16.3773 24 255 0 255 255 
2 16.0462 25 255 0 255 255 
2 15.7151 26 255 0 255 255 
2 15.3841 27 255 0 255 255 
2 15.053 28 255 0 255 255 
2 14.7219 29 255 0 255 255 
2 14.3909 30 255 0 255 255 
2 14.0598 31 255 0 255 255 
2 13.7287 32 255 0 255 255 
2 13.3977 33 255 0 255 255 
2 13.0666 34 255 0 255 255 
2 12.7356 35 255 0 255 255 
2 12.4045 36 255 0 255 255 
2 12.0734 37 255 0 255 255 
2 11.7424 38 255 0 255 255 
2 11.4113 39 255 0 255 255 
2 11.0802 40 255 0 255 255 
2 10.7492 41 255 0 255 255 
2 10.4181 42 255 0 255 255 
2 10.087 43 255 0 255 255 
2 9.75598 44 255 0 255 255 
2 9.42492 45 255 0 255 255 
2 9.09385 46 255 0 255 255 
2 8.76279 47 255 0 255 255 
2 8.43172 48 255 0 255 255 
2 8.10066 49 255 0 255 255 
2 7.7696 50 255 0 255 255 
2 7.43853 51 255 0 255 255 
2 7.10747 52 255 0 255 255 
2 6.77641 53 255 0 255 255 
2 6.44534 54 255 0 255 255 
2 6.11428 55 255 0 255 255 
2 5.78321 56 255 0 255 255 
2 5.45215 57 255 0 255 255 
2 5.12109 58 255 0 255 255 
2 4.79002 59 255 0 255 255 
2 4.45896 60 255 0 255 255 
2 4.12789 61 255 0 255 255 
2 3.79683 62 255 0 255 255 
2 3.46577 63 255 0 255 255 
2 3.1347 64 255 0 255 255 
2 2.80364 65 255 0 255 255 
2 2.47257 66 255 0 255 255 
2 2.14151 67 255 0 255 255 
2 1.81045 68 255 0 255 255 
2 1.47938 69 255 0 255 255 
2 1.14832 70 255 0 255 255 
2 0.817256 71 255 0 255 255 
2 0.486192 72 255 0 255 255 
2 0.155128 73 255 0 255 255 
2 -0.175936 74 255 0 255 255 
2 -0.507 75 255 0 255 255 
2 -0.838064 76 255 0 255 255 
2 -1.16913 77 255 0 255 255 
2 -1.50019 78 255 0 255 255 
2 -1.83126 79 255 0 255 255 
2 -2.16232 80 255 0 255 255 
2 -2.49338 81 255 0 255 255 
2 -2.82445 82 255 0 255 255 
2 -3.15551 83 255 0 255 255 
2 -3.48657 84 255 0 255 255 
2 -3.81764 85 255 0 255 255 
2 -4.1487 86 255 0 255 255 
2 -4.47977 87 255 0 255 255 
2 -4.81083 88 255 0 255 255 
2 -5.14189 89 255 0 255 255 
2 -5.47296 90 255 0 255 255 
2 -5.80402 91 255 0 255 255 
2 -6.13509 92 255 0 255 255 
2 -6.46615 93 255 0 255 255 
2 -6.79721 94 255 0 255 255 
2 -7.12828 95 255 0 255 255 
2 -7.45934 96 255 0 255 255 
2 -7.7904 97 255 0 255 255 
2 -8.12147 98 255 0 255 255 
2 -8.45253 99 255 0 255 255 
2 -8.7836 100 255 0 255 255 
3 64.4897 -100 255 0 255 255 
3 64.1586 -99 255 0 255 255 
3 63.8275 -98 255 0 255 255 
3 63.4965 -97 255 0 255 255 
3 63.1654 -96 255 0 255 255 
3 62.8343 -95 255 0 255 255 
3 62.5033 -94 255 0 255 255 
3 62.1722 -93 255 0 255 255 
3 61.8411 -92 255 0 255 255 
3 61.5101 -91 255 0 255 255 
3 61.179 -90 255 0 255 255 
3 60.848 -89 255 0 255 255 
3 60.5169 -88 255 0 255 255 
3 60.1858 -87 255 0 255 255 
3 59.8548 -86 255 0 255 255 
3 59.5237 -85 255 0 255 255 
3 59.1926 -84 255 0 255 255 
3 58.8616 -83 255 0 255 255 
3 58.5305 -82 255 0 255 255 
3 58.1994 -81 255 0 255 255 
3 57.8684 -80 255 0 255 255 
3 57.5373 -79 255 0 255 255 
3 57.2063 -78 255 0 255 255 
3 56.8752 -77 255 0 255 255 
3 56.5441 -76 255 0 255 255 
3 56.2131 -75 255 0 255 255 
3 55.882 -74 255 0 255 255 
3 55.5509 -73 255 0 255 255 
3 55.2199 -72 255 0 255 255 
3 54.8888 -71 255 0 255 255 
3 54.5577 -70 255 0 255 255 
3 54.2267 -69 255 0 255 255 
3 53.8956 -68 255 0 255 255 
3 53.5646 -67 255 0 255 255 
3 53.2335 -66 255 0 255 255 
3 52.9024 -65 255 0 255 255 
3 52.5714 -64 255 0 255 255 
3 52.2403 -63 255 0 255 255 
3 51.9092 -62 255 0 255 255 
3 51.5782 -61 255 0 255 255 
3 51.2471 -60 255 0 255 255 
3 50.916 -59 255 0 255 255 
3 50.585 -58 255 0 255 255 
3 50.2539 -57 255 0 255 255 
3 49.9228 -56 255 0 255 255 
3 49.5918 -55 255 0 255 255 
3 49.2607 -54 255 0 255 255 
3 48.9297 -53 255 0 255 255 
3 48.5986 -52 255 0 255 255 
3 48.2675 -51 255 0 255 255 
3 47.9365 -50 255 0 255 255 
3 47.6054 -49 255 0 255 255 
3 47.2743 -48 255 0 255 255 
3 46.9433 -47 255 0 255 255 
3 46.6122 -46 255 0 255 255 
3 46.2811 -45 255 0 255 255 
3 45.9501 -44 255 0 255 255 
3 45.619 -43 255 0 255 255 
3 45.288 -42 255 0 255 255 
3 44.9569 -41 255 0 255 255 
3 44.6258 -40 255 0 255 255 
3 44.2948 -39 255 0 255 255 
3 43.9637 -38 255 0 255 255 
3 43.6326 -37 255 0 255 255 
3 43.3016 -36 255 0 255 255 
3 42.9705 -35 255 0 255 255 
3 42.6394 -34 255 0 255 255 
3 42.3084 -33 255 0 255 255 
3 41.9773 -32 255 0 255 255 
3 41.6463 -31 255 0 255 255 
3 41.3152 -30 255 0 255 255 
3 40.9841 -29 255 0 255 255 
3 40.6531 -28 255 0 255 255 
3 40.322 -27 255 0 255 255 
3 39.9909 -26 255 0 255 255 
3 39.6599 -25 255 0 255 255 
3 39.3288 -24 255 0 255 255 
3 38.9977 -23 255 0 255 255 
3 38.6667 -22 255 0 255 255 
3 38.3356 -21 255 0 255 255 
3 38.0046 -20 255 0 255 255 
3 37.6735 -19 255 0 255 255 
3 37.3424 -18 255 0 255 255 
3 37.0114 -17 255 0 255 255 
3 36.6803 -16 255 0 255 255 
3 36.3492 -15 255 0 255 255 
3 36.0182 -14 255 0 255 255 
3 35.6871 -13 255 0 255 255 
3 35.356 -12 255 0 255 255 
3 35.025 -11 255 0 255 255 
3 34.6939 -10 255 0 255 255 
3 34.3628 -9 255 0 255 255 
3 34.0318 -8 255 0 255 255 
3 33.7007 -7 255 0 255 255 
3 33.3697 -6 255 0 255 255 
3 33.0386 -5 255 0 255 255 
3 32.7075 -4 255 0 255 255 
3 32.3765 -3 255 0 255 255 
3 32.0454 -2 255 0 255 255 
3 31.7143 -1 255 0 255 255 
3 31.3833 0 255 0 255 255 
3 31.0522 1 255 0 255 255 
3 30.7211 2 255 0 255 255 
3 30.3901 3 255 0 255 255 
3 30.059 4 255 0 255 255 
3 29.728 5 255 0 255 255 
3 29.3969 6 255 0 255 255 
3 29.0658 7 255 0 255 255 
3 28.7348 8 255 0 255 255 
3 28.4037 9 255 0 255 255 
3 28.0726 10 255 0 255 255 
3 27.7416 11 255 0 255 255 
3 27.4105 12 255 0 255 255 
3 27.0794 13 255 0 255 255 
3 26.7484 14 255 0 255 255 
3 26.4173 15 255 0 255 255 
3 26.0863 16 255 0 255 255 
3 25.7552 17 255 0 255 255 
3 25.4241 18 255 0 255 255 
3 25.0931 19 255 0 255 255 
3 24.762 20 255 0 255 255 
3 24.4309 21 255 0 255 255 
3 24.0999 22 255 0 255 255 
3 23.7688 23 255 0 255 255 
3 23.4377 24 255 0 255 255 
3 23.1067 25 255 0 255 255 
3 22.7756 26 255 0 255 255 
3 22.4445 27 255 0 255 255 
3 22.1135 28 255 0 255 255 
3 21.7824 29 255 0 255 255 
3 21.4514 30 255 0 255 255 
3 21.1203 31 255 0 255 255 
3 20.7892 32 255 0 255 255 
3 20.4582 33 255 0 255 255 
3 20.1271 34 255 0 255 255 
3 19.796 35 255 0 255 255 
3 19.465 36 255 0 255 255 
3 19.1339 37 255 0 255 255 
3 18.8028 38 255 0 255 255 
3 18.4718 39 255 0 255 255 
3 18.1407 40 255 0 255 255 
3 17.8097 41 255 0 255 255 
3 17.4786 42 255 0 255 255 
3 17.1475 43 255 0 255 255 
3 16.8165 44 255 0 255 255 
3 16.4854 45 255 0 255 255 
3 16.1543 46 255 0 255 255 
3 15.8233 47 255 0 255 255 
3 15.4922 48 255 0 255 255 
3 15.1611 49 255 0 255 255 
3 14.8301 50 255 0 255 255 
3 14.499 51 255 0 255 255 
3 14.168 52 255 0 255 255 
3 13.8369 53 255 0 255 255 
3 13.5058 54 255 0 255 255 
3 13.1748 55 255 0 255 255 
3 12.8437 56 255 0 255 255 
3 12.5126 57 255 0 255 255 
3 12.1816 58 255 0 255 255 
3 11.8505 59 255 0 255 255 
3 11.5194 60 255 0 255 255 
3 11.1884 61 255 0 255 255 
3 10.8573 62 255 0 255 255 
3 10.5262 63 255 0 255 255 
3 10.1952 64 255 0 255 255 
3 9.86412 65 255 0 255 255 
3 9.53306 66 255 0 255 255 
3 9.20199 67 255 0 255 255 
3 8.87093 68 255 0 255 255 
3 8.53987 69 255 0 255 255 
3 8.2088 70 255 0 255 255 
3 7.87774 71 255 0 255 255 
3 7.54667 72 255 0 255 255 
3 7.21561 73 255 0 255 255 
3 6.88455 74 255 0 255 255 
3 6.55348 75 255 0 255 255 
3 6.22242 76 255 0 255 255 
3 5.89135 77 255 0 255 255 
3 5.56029 78 255 0 255 255 
3 5.22923 79 255 0 255 255 
3 4.89816 80 255 0 255 255 
3 4.5671 81 255 0 255 255 
3 4.23604 82 255 0 255 255 
3 3.90497 83 255 0 255 255 
3 3.57391 84 255 0 255 255 
3 3.24284 85 255 0 255 255 
3 2.91178 86 255 0 255 255 
3 2.58072 87 255 0 255 255 
3 2.24965 88 255 0 255 255 
3 1.91859 89 255 0 255 255 
3 1.58752 90 255 0 255 255 
3 1.25646 91 255 0 255 255 
3 0.925397 92 255 0 255 255 
3 0.594333 93 255 0 255 255 
3 0.263269 94 255 0 255 255 
3 -0.067795 95 255 0 255 255 
3 -0.398859 96 255 0 255 255 
3 -0.729923 97 255 0 255 255 
3 -1.06099 98 255 0 255 255 
3 -1.39205 99 255 0 255 255 
3 -1.72311 100 255 0 255 255 
4 71.5501 -100 255 0 255 255 
4 71.2191 -99 255 0 255 255 
4 70.888 -98 255 0 255 255 
4 70.5569 -97 255 0 255 255 
4 70.2259 -96 255 0 255 255 
4 69.8948 -95 255 0 255 255 
4 69.5638 -94 255 0 255 255 
4 69.2327 -93 255 0 255 255 
4 68.9016 -92 255 0 255 255 
4 68.5706 -91 255 0 255 255 
4 68.2395 -90 255 0 255 255 
4 67.9084 -89 255 0 255 255 
4 67.5774 -88 255 0 255 255 
4 67.2463 -87 255 0 255 255 
4 66.9152 -86 255 0 255 255 
4 66.5842 -85 255 0 255 255 
4 66.2531 -84 255 0 255 255 
4 65.9221 -83 255 0 255 255 
4 65.591 -82 255 0 255 255 
4 65.2599 -81 255 0 255 255 
4 64.9289 -80 255 0 255 255 
4 64.5978 -79 255 0 255 255 
4 64.2667 -78 255 0 255 255 
4 63.9357 -77 255 0 255 255 
4 63.6046 -76 255 0 255 255 
4 63.2735 -75 255 0 255 255 
4 62.9425 -74 255 0 255 255 
4 62.6114 -73 255 0 255 255 
4 62.2804 -72 255 0 255 255 
4 61.9493 -71 255 0 255 255 
4 61.6182 -70 255 0 255 255 
4 61.2872 -69 255 0 255 255 
4 60.9561 -68 255 0 255 255 
4 60.625 -67 255 0 255 255 
4 60.294 -66 255 0 255 255 
4 59.9629 -65 255 0 255 255 
4 59.6318 -64 255 0 255 255 
4 59.3008 -63 255 0 255 255 
4 58.9697 -62 255 0 255 255 
4 58.6386 -61 255 0 255 255 
4 58.3076 -60 255 0 255 255 
4 57.9765 -59 255 0 255 255 
4 57.6455 -58 255 0 255 255 
4 57.3144 -57 255 0 255 255 
4 56.9833 -56 255 0 255 255 
4 56.6523 -55 255 0 255 255 
4 56.3212 -54 255 0 255 255 
4 55.9901 -53 255 0 255 255 
4 55.6591 -52 255 0 255 255 
4 55.328 -51 255 0 255 255 
4 54.9969 -50 255 0 255 255 
4 54.6659 -49 255 0 255 255 
4 54.3348 -48 255 0 255 255 
4 54.0038 -47 255 0 255 255 
4 53.6727 -46 255 0 255 255 
4 53.3416 -45 255 0 255 255 
4 53.0106 -44 255 0 255 255 
4 52.6795 -43 255 0 255 255 
4 52.3484 -42 255 0 255 255 
4 52.0174 -41 255 0 255 255 
4 51.6863 -40 255 0 255 255 
4 51.3552 -39 255 0 255 255 
4 51.0242 -38 255 0 255 255 
4 50.6931 -37 255 0 255 255 
4 50.3621 -36 255 0 255 255 
4 50.031 -35 255 0 255 255 
4 49.6999 -34 255 0 255 255 
4 49.3689 -33 255 0 255 255 
4 49.0378 -32 255 0 255 255 
4 48.7067 -31 255 0 255 255 
4 48.3757 -30 255 0 255 255 
4 48.0446 -29 255 0 255 255 
4 47.7135 -28 255 0 255 255 
4 47.3825 -27 255 0 255 255 
4 47.0514 -26 255 0 255 255 
4 46.7204 -25 255 0 255 255 
4 46.3893 -24 255 0 255 255 
4 46.0582 -23 255 0 255 255 
4 45.7272 -22 255 0 255 255 
4 45.3961 -21 255 0 255 255 
4 45.065 -20 255 0 255 255 
4 44.734 -19 255 0 255 255 
4 44.4029 -18 255 0 255 255 
4 44.0718 -17 255 0 255 255 
4 43.7408 -16 255 0 255 255 
4 43.4097 -15 255 0 255 255 
4 43.0786 -14 255 0 255 255 
4 42.7476 -13 255 0 255 255 
4 42.4165 -12 255 0 255 255 
4 42.0855 -11 255 0 255 255 
4 41.7544 -10 255 0 255 255 
4 41.4233 -9 255 0 255 255 
4 41.0923 -8 255 0 255 255 
4 40.7612 -7 255 0 255 255 
4 40.4301 -6 255 0 255 255 
4 40.0991 -5 255 0 255 255 
4 39.768 -4 255 0 255 255 
4 39.4369 -3 255 0 255 255 
4 39.1059 -2 255 0 255 255 
4 38.7748 -1 255 0 255 255 
4 38.4438 0 255 0 255 255 
4 38.1127 1 255 0 255 255 
4 37.7816 2 255 0 255 255 
4 37.4506 3 255 0 255 255 
4 37.1195 4 255 0 255 255 
4 36.7884 5 255 0 255 255 
4 36.4574 6 255 0 255 255 
4 36.1263 7 255 0 255 255 
4 35.7952 8 255 0 255 255 
4 35.4642 9 255 0 255 255 
4 35.1331 10 255 0 255 255 
4 34.8021 11 255 0 255 255 
4 34.471 12 255 0 255 255 
4 34.1399 13 255 0 255 255 
4 33.8089 14 255 0 255 255 
4 33.4778 15 255 0 255 255 
4 33.1467 16 255 0 255 255 
4 32.8157 17 255 0 255 255 
4 32.4846 18 255 0 255 255 
4 32.1535 19 255 0 255 255 
4 31.8225 20 255 0 255 255 
4 31.4914 21 255 0 255 255 
4 31.1603 22 255 0 255 255 
4 30.8293 23 255 0 255 255 
4 30.4982 24 255 0 255 255 
4 30.1672 25 255 0 255 255 
4 29.8361 26 255 0 255 255 
4 29.505 27 255 0 255 255 
4 29.174 28 255 0 255 255 
4 28.8429 29 255 0 255 255 
4 28.5118 30 255 0 255 255 
4 28.1808 31 255 0 255 255 
4 27.8497 32 255 0 255 255 
4 27.5186 33 255 0 255 255 
4 27.1876 34 255 0 255 255 
4 26.8565 35 255 0 255 255 
4 26.5255 36 255 0 255 255 
4 26.1944 37 255 0 255 255 
4 25.8633 38 255 0 255 255 
4 25.5323 39 255 0 255 255 
4 25.2012 40 255 0 255 255 
4 24.8701 41 255 0 255 255 
4 24.5391 42 255 0 255 255 
4 24.208 43 255 0 255 255 
4 23.8769 44 255 0 255 255 
4 23.5459 45 255 0 255 255 
4 23.2148 46 255 0 255 255 
4 22.8838 47 255 0 255 255 
4 22.5527 48 255 0 255 255 
4 22.2216 49 255 0 255 255 
4 21.8906 50 255 0 255 255 
4 21.5595 51 255 0 255 255 
4 21.2284 52 255 0 255 255 
4 20.8974 53 255 0 255 255 
4 20.5663 54 255 0 255 255 
4 20.2352 55 255 0 255 255 
4 19.9042 56 255 0 255 255 
4 19.5731 57 255 0 255 255 
4 19.2421 58 255 0 255 255 
4 18.911 59 255 0 255 255 
4 18.5799 60 255 0 255 255 
4 18.2489 61 255 0 255 255 
4 17.9178 62 255 0 255 255 
4 17.5867 63 255 0 255 255 
4 17.2557 64 255 0 255 255 
4 16.9246 65 255 0 255 255 
4 16.5935 66 255 0 255 255 
4 16.2625 67 255 0 255 255 
4 15.9314 68 255 0 255 255 
4 15.6003 69 255 0 255 255 
4 15.2693 70 255 0 255 255 
4 14.9382 71 255 0 255 255 
4 14.6072 72 255 0 255 255 
4 14.2761 73 255 0 255 255 
4 13.945 74 255 0 255 255 
4 13.614 75 255 0 255 255 
4 13.2829 76 255 0 255 255 
4 12.9518 77 255 0 255 255 
4 12.6208 78 255 0 255 255 
4 12.2897 79 255 0 255 255 
4 11.9586 80 255 0 255 255 
4 11.6276 81 255 0 255 255 
4 11.2965 82 255 0 255 255 
4 10.9655 83 255 0 255 255 
4 10.6344 84 255 0 255 255 
4 10.3033 85 255 0 255 255 
4 9.97226 86 255 0 255 255 
4 9.6412 87 255 0 255 255 
4 9.31013 88 255 0 255 255 
4 8.97907 89 255 0 255 255 
4 8.64801 90 255 0 255 255 
4 8.31694 91 255 0 255 255 
4 7.98588 92 255 0 255 255 
4 7.65481 93 255 0 255 255 
4 7.32375 94 255 0 255 255 
4 6.99269 95 255 0 255 255 
4 6.66162 96 255 0 255 255 
4 6.33056 97 255 0 255 255 
4 5.9995 98 255 0 255 255 
4 5.66843 99 255 0 255 255 
4 5.33737 100 255 0 255 255 
5 78.6106 -100 255 0 255 255 
5 78.2796 -99 255 0 255 255 
5 77.9485 -98 255 0 255 255 
5 77.6174 -97 255 0 255 255 
5 77.2864 -96 255 0 255 255 
5 76.9553 -95 255 0 255 255 
5 76.6242 -94 255 0 255 255 
5 76.2932 -93 255 0 255 255 
5 75.9621 -92 255 0 255 255 
5 75.6311 -91 255 0 255 255 
5 75.3 -90 255 0 255 255 
5 74.9689 -89 255 0 255 255 
5 74.6379 -88 255 0 255 255 
5 74.3068 -87 255 0 255 255 
5 73.9757 -86 255 0 255 255 
5 73.6447 -85 255 0 255 255 
5 73.3136 -84 255 0 255 255 
5 72.9825 -83 255 0 255 255 
5 72.6515 -82 255 0 255 255 
5 72.3204 -81 255 0 255 255 
5 71.9893 -80 255 0 255 255 
5 71.6583 -79 255 0 255 255 
5 71.3272 -78 255 0 255 255 
5 70.9962 -77 255 0 255 255 
5 70.6651 -76 255 0 255 255 
5 70.334 -75 255 0 255 255 
5 70.003 -74 255 0 255 255 
5 69.6719 -73 255 0 255 255 
5 69.3408 -72 255 0 255 255 
5 69.0098 -71 255 0 255 255 
5 68.6787 -70 255 0 255 255 
5 68.3476 -69 255 0 255 255 
5 68.0166 -68 255 0 255 255 
5 67.6855 -67 255 0 255 255 
5 67.3545 -66 255 0 255 255 
5 67.0234 -65 255 0 255 255 
5 66.6923 -64 255 0 255 255 
5 66.3613 -63 255 0 255 255 
5 66.0302 -62 255 0 255 255 
5 65.6991 -61 255 0 255 255 
5 65.3681 -60 255 0 255 255 
5 65.037 -59 255 0 255 255 
5 64.7059 -58 255 0 255 255 
5 64.3749 -57 255 0 255 255 
5 64.0438 -56 255 0 255 255 
5 63.7127 -55 255 0 255 255 
5 63.3817 -54 255 0 255 255 
5 63.0506 -53 255 0 255 255 
5 62.7196 -52 255 0 255 255 
5 62.3885 -51 255 0 255 255 
5 62.0574 -50 255 0 255 255 
5 61.7264 -49 255 0 255 255 
5 61.3953 -48 255 0 255 255 
5 61.0642 -47 255 0 255 255 
5 60.7332 -46 255 0 255 255 
5 60.4021 -45 255 0 255 255 
5 60.071 -44 255 0 255 255 
5 59.74 -43 255 0 255 255 
5 59.4089 -42 255 0 255 255 
5 59.0779 -41 255 0 255 255 
5 58.7468 -40 255 0 255 255 
5 58.4157 -39 255 0 255 255 
5 58.0847 -38 255 0 255 255 
5 57.7536 -37 255 0 255 255 
5 57.4225 -36 255 0 255 255 
5 57.0915 -35 255 0 255 255 
5 56.7604 -34 255 0 255 255 
5 56.4293 -33 255 0 255 255 
5 56.0983 -32 255 0 255 255 
5 55.7672 -31 255 0 255 255 
5 55.4362 -30 255 0 255 255 
5 55.1051 -29 255 0 255 255 
5 54.774 -28 255 0 255 255 
5 54.443 -27 255 0 255 255 
5 54.1119 -26 255 0 255 255 
5 53.7808 -25 255 0 255 255 
5 53.4498 -24 255 0 255 255 
5 53.1187 -23 255 0 255 255 
5 52.7876 -22 255 0 255 255 
5 52.4566 -21 255 0 255 255 
5 52.1255 -20 255 0 255 255 
5 51.7944 -19 255 0 255 255 
5 51.4634 -18 255 0 255 255 
5 51.1323 -17 255 0 255 255 
5 50.8013 -16 255 0 255 255 
5 50.4702 -15 255 0 255 255 
5 50.1391 -14 255 0 255 255 
5 49.8081 -13 255 0 255 255 
5 49.477 -12 255 0 255 255 
5 49.1459 -11 255 0 255 255 
5 48.8149 -10 255 0 255 255 
5 48.4838 -9 255 0 255 255 
5 48.1527 -8 255 0 255 255 
5 47.8217 -7 255 0 255 255 
5 47.4906 -6 255 0 255 255 
5 47.1596 -5 255 0 255 255 
5 46.8285 -4 255 0 255 255 
5 46.4974 -3 255 0 255 255 
5 46.1664 -2 255 0 255 255 
5 45.8353 -1 255 0 255 255 
5 45.5042 0 255 0 255 255 
5 45.1732 1 255 0 255 255 
5 44.8421 2 255 0 255 255 
5 44.511 3 255 0 255 255 
5 44.18 4 255 0 255 255 
5 43.8489 5 255 0 255 255 
5 43.5179 6 255 0 255 255 
5 43.1868 7 255 0 255 255 
5 42.8557 8 255 0 255 255 
5 42.5247 9 255 0 255 255 
5 42.1936 10 255 0 255 255 
5 41.8625 11 255 0 255 255 
5 41.5315 12 255 0 255 255 
5 41.2004 13 255 0 255 255 
5 40.8693 14 255 0 255 255 
5 40.5383 15 255 0 255 255 
5 40.2072 16 255 0 255 255 
5 39.8762 17 255 0 255 255 
5 39.5451 18 255 0 255 255 
5 39.214 19 255 0 255 255 
5 38.883 20 255 0 255 255 
5 38.5519 21 255 0 255 255 
5 38.2208 22 255 0 255 255 
5 37.8898 23 255 0 255 255 
5 37.5587 24 255 0 255 255 
5 37.2276 25 255 0 255 255 
5 36.8966 26 255 0 255 255 
5 36.5655 27 255 0 255 255 
5 36.2344 28 255 0 255 255 
5 35.9034 29 255 0 255 255 
5 35.5723 30 255 0 255 255 
5 35.2413 31 255 0 255 255 
5 34.9102 32 255 0 255 255 
5 34.5791 33 255 0 255 255 
5 34.2481 34 255 0 255 255 
5 33.917 35 255 0 255 255 
5 33.5859 36 255 0 255 255 
5 33.2549 37 255 0 255 255 
5 32.9238 38 255 0 255 255 
5 32.5927 39 255 0 255 255 
5 32.2617 40 255 0 255 255 
5 31.9306 41 255 0 255 255 
5 31.5996 42 255 0 255 255 
5 31.2685 43 255 0 255 255 
5 30.9374 44 255 0 255 255 
5 30.6064 45 255 0 255 255 
5 30.2753 46 255 0 255 255 
5 29.9442 47 255 0 255 255 
5 29.6132 48 255 0 255 255 
5 29.2821 49 255 0 255 255 
5 28.951 50 255 0 255 255 
5 28.62 51 255 0 255 255 
5 28.2889 52 255 0 255 255 
5 27.9579 53 255 0 255 255 
5 27.6268 54 255 0 255 255 
5 27.2957 55 255 0 255 255 
5 26.9647 56 255 0 255 255 
5 26.6336 57 255 0 255 255 
5 26.3025 58 255 0 255 255 
5 25.9715 59 255 0 255 255 
5 25.6404 60 255 0 255 255 
5 25.3093 61 255 0 255 255 
5 24.9783 62 255 0 255 255 
5 24.6472 63 255 0 255 255 
5 24.3161 64 255 0 255 255 
5 23.9851 65 255 0 255 255 
5 23.654 66 255 0 255 255 
5 23.323 67 255 0 255 255 
5 22.9919 68 255 0 255 255 
5 22.6608 69 255 0 255 255 
5 22.3298 70 255 0 255 255 
5 21.9987 71 255 0 255 255 
5 21.6676 72 255 0 255 255 
5 21.3366 73 255 0 255 255 
5 21.0055 74 255 0 255 255 
5 20.6744 75 255 0 255 255 
5 20.3434 76 255 0 255 255 
5 20.0123 77 255 0 255 255 
5 19.6813 78 255 0 255 255 
5 19.3502 79 255 0 255 255 
5 19.0191 80 255 0 255 255 
5 18.6881 81 255 0 255 255 
5 18.357 82 255 0 255 255 
5 18.0259 83 255 0 255 255 
5 17.6949 84 255 0 255 255 
5 17.3638 85 255 0 255 255 
5 17.0327 86 255 0 255 255 
5 16.7017 87 255 0 255 255 
5 16.3706 88 255 0 255 255 
5 16.0396 89 255 0 255 255 
5 15.7085 90 255 0 255 255 
5 15.3774 91 255 0 255 255 
5 15.0464 92 255 0 255 255 
5 14.7153 93 255 0 255 255 
5 14.3842 94 255 0 255 255 
5 14.0532 95 255 0 255 255 
5 13.7221 96 255 0 255 255 
5 13.391 97 255 0 255 255 
5 13.06 98 255 0 255 255 
5 12.7289 99 255 0 255 255 
5 12.3979 100 255 0 255 255 
6 85.6711 -100 255 0 255 255 
6 85.34 -99 255 0 255 255 
6 85.009 -98 255 0 255 255 
6 84.6779 -97 255 0 255 255 
6 84.3468 -96 255 0 255 255 
6 84.0158 -95 255 0 255 255 
6 83.6847 -94 255 0 255 255 
6 83.3537 -93 255 0 255 255 
6 83.0226 -92 255 0 255 255 
6 82.6915 -91 255 0 255 255 
6 82.3605 -90 255 0 255 255 
6 82.0294 -89 255 0 255 255 
6 81.6983 -88 255 0 255 255 
6 81.3673 -87 255 0 255 255 
6 81.0362 -86 255 0 255 255 
6 80.7051 -85 255 0 255 255 
6 80.3741 -84 255 0 255 255 
6 80.043 -83 255 0 255 255 
6 79.712 -82 255 0 255 255 
6 79.3809 -81 255 0 255 255 
6 79.0498 -80 255 0 255 255 
6 78.7188 -79 255 0 255 255 
6 78.3877 -78 255 0 255 255 
6 78.0566 -77 255 0 255 255 
6 77.7256 -76 255 0 255 255 
6 77.3945 -75 255 0 255 255 
6 77.0634 -74 255 0 255 255 
6 76.7324 -73 255 0 255 255 
6 76.4013 -72 255 0 255 255 
6 76.0703 -71 255 0 255 255 
6 75.7392 -70 255 0 255 255 
6 75.4081 -69 255 0 255 255 
6 75.0771 -68 255 0 255 255 
6 74.746 -67 255 0 255 255 
6 74.4149 -66 255 0 255 255 
6 74.0839 -65 255 0 255 255 
6 73.7528 -64 255 0 255 255 
6 73.4217 -63 255 0 255 255 
6 73.0907 -62 255 0 255 255 
6 72.7596 -61 255 0 255 255 
6 72.4286 -60 255 0 255 255 
6 72.0975 -59 255 0 255 255 
6 71.7664 -58 255 0 255 255 
6 71.4354 -57 255 0 255 255 
6 71.1043 -56 255 0 255 255 
6 70.7732 -55 255 0 255 255 
6 70.4422 -54 255 0 255 255 
6 70.1111 -53 255 0 255 255 
6 69.78 -52 255 0 255 255 
6 69.449 -51 255 0 255 255 
6 69.1179 -50 255 0 255 255 
6 68.7868 -49 255 0 255 255 
6 68.4558 -48 255 0 255 255 
6 68.1247 -47 255 0 255 255 
6 67.7937 -46 255 0 255 255 
6 67.4626 -45 255 0 255 255 
6 67.1315 -44 255 0 255 255 
6 66.8005 -43 255 0 255 255 
6 66.4694 -42 255 0 255 255 
6 66.1383 -41 255 0 255 255 
6 65.8073 -40 255 0 255 255 
6 65.4762 -39 255 0 255 255 
6 65.1451 -38 255 0 255 255 
6 64.8141 -37 255 0 255 255 
6 64.483 -36 255 0 255 255 
6 64.152 -35 255 0 255 255 
6 63.8209 -34 255 0 255 255 
6 63.4898 -33 255 0 255 255 
6 63.1588 -32 255 0 255 255 
6 62.8277 -31 255 0 255 255 
6 62.4966 -30 255 0 255 255 
6 62.1656 -29 255 0 255 255 
6 61.8345 -28 255 0 255 255 
6 61.5034 -27 255 0 255 255 
6 61.1724 -26 255 0 255 255 
6 60.8413 -25 255 0 255 255 
6 60.5103 -24 255 0 255 255 
6 60.1792 -23 255 0 255 255 
6 59.8481 -22 255 0 255 255 
6 59.5171 -21 255 0 255 255 
6 59.186 -20 255 0 255 255 
6 58.8549 -19 255 0 255 255 
6 58.5239 -18 255 0 255 255 
6 58.1928 -17 255 0 255 255 
6 57.8617 -16 255 0 255 255 
6 57.5307 -15 255 0 255 255 
6 57.1996 -14 255 0 255 255 
6 56.8685 -13 255 0 255 255 
6 56.5375 -12 255 0 255 255 
6 56.2064 -11 255 0 255 255 
6 55.8754 -10 255 0 255 255 
6 55.5443 -9 255 0 255 255 
6 55.2132 -8 255 0 255 255 
6 54.8822 -7 255 0 255 255 
6 54.5511 -6 255 0 255 255 
6 54.22 -5 255 0 255 255 
6 53.889 -4 255 0 255 255 
6 53.5579 -3 255 0 255 255 
6 53.2268 -2 255 0 255 255 
6 52.8958 -1 255 0 255 255 
6 52.5647 0 255 0 255 255 
6 52.2337 1 255 0 255 255 
6 51.9026 2 255 0 255 255 
6 51.5715 3 255 0 255 255 
6 51.2405 4 255 0 255 255 
6 50.9094 5 255 0 255 255 
6 50.5783 6 255 0 255 255 
6 50.2473 7 255 0 255 255 
6 49.9162 8 255 0 255 255 
6 49.5851 9 255 0 255 255 
6 49.2541 10 255 0 255 255 
6 48.923 11 255 0 255 255 
6 48.592 12 255 0 255 255 
6 48.2609 13 255 0 255 255 
6 47.9298 14 255 0 255 255 
6 47.5988 15 255 0 255 255 
6 47.2677 16 255 0 255 255 
6 46.9366 17 255 0 255 255 
6 46.6056 18 255 0 255 255 
6 46.2745 19 255 0 255 255 
6 45.9434 20 255 0 255 255 
6 45.6124 21 255 0 255 255 
6 45.2813 22 255 0 255 255 
6 44.9502 23 255 0 255 255 
6 44.6192 24 255 0 255 255 
6 44.2881 25 255 0 255 255 
6 43.9571 26 255 0 255 255 
6 43.626 27 255 0 255 255 
6 43.2949 28 255 0 255 255 
6 42.9639 29 255 0 255 255 
6 42.6328 30 255 0 255 255 
6 42.3017 31 255 0 255 255 
6 41.9707 32 255 0 255 255 
6 41.6396 33 255 0 255 255 
6 41.3085 34 255 0 255 255 
6 40.9775 35 255 0 255 255 
6 40.6464 36 255 0 255 255 
6 40.3154 37 255 0 255 255 
6 39.9843 38 255 0 255 255 
6 39.6532 39 255 0 255 255 
6 39.3222 40 255 0 255 255 
6 38.9911 41 255 0 255 255 
6 38.66 42 255 0 255 255 
6 38.329 43 255 0 255 255 
6 37.9979 44 255 0 255 255 
6 37.6668 45 255 0 255 255 
6 37.3358 46 255 0 255 255 
6 37.0047 47 255 0 255 255 
6 36.6737 48 255 0 255 255 
6 36.3426 49 255 0 255 255 
6 36.0115 50 255 0 255 255 
6 35.6805 51 255 0 255 255 
6 35.3494 52 255 0 255 255 
6 35.0183 53 255 0 255 255 
6 34.6873 54 255 0 255 255 
6 34.3562 55 255 0 255 255 
6 34.0251 56 255 0 255 255 
6 33.6941 57 255 0 255 255 
6 33.363 58 255 0 255 255 
6 33.032 59 255 0 255 255 
6 32.7009 60 255 0 255 255 
6 32.3698 61 255 0 255 255 
6 32.0388 62 255 0 255 255 
6 31.7077 63 255 0 255 255 
6 31.3766 64 255 0 255 255 
6 31.0456 65 255 0 255 255 
6 30.7145 66 255 0 255 255 
6 30.3834 67 255 0 255 255 
6 30.0524 68 255 0 255 255 
6 29.7213 69 255 0 255 255 
6 29.3902 70 255 0 255 255 
6 29.0592 71 255 0 255 255 
6 28.7281 72 255 0 255 255 
6 28.3971 73 255 0 255 255 
6 28.066 74 255 0 255 255 
6 27.7349 75 255 0 255 255 
6 27.4039 76 255 0 255 255 
6 27.0728 77 255 0 255 255 
6 26.7417 78 255 0 255 255 
6 26.4107 79 255 0 255 255 
6 26.0796 80 255 0 255 255 
6 25.7485 81 255 0 255 255 
6 25.4175 82 255 0 255 255 
6 25.0864 83 255 0 255 255 
6 24.7554 84 255 0 255 255 
6 24.4243 85 255 0 255 255 
6 24.0932 86 255 0 255 255 
6 23.7622 87 255 0 255 255 
6 23.4311 88 255 0 255 255 
6 23.1 89 255 0 255 255 
6 22.769 90 255 0 255 255 
6 22.4379 91 255 0 255 255 
6 22.1068 92 255 0 255 255 
6 21.7758 93 255 0 255 255 
6 21.4447 94 255 0 255 255 
6 21.1137 95 255 0 255 255 
6 20.7826 96 255 0 255 255 
6 20.4515 97 255 0 255 255 
6 20.1205 98 255 0 255 255 
6 19.7894 99 255 0 255 255 
6 19.4583 100 255 0 255 255 
7 92.7316 -100 255 0 255 255 
7 92.4005 -99 255 0 255 255 
7 92.0695 -98 255 0 255 255 
7 91.7384 -97 255 0 255 255 
7 91.4073 -96 255 0 255 255 
7 91.0763 -95 255 0 255 255 
7 90.7452 -94 255 0 255 255 
7 90.4141 -93 255 0 255 255 
7 90.0831 -92 255 0 255 255 
7 89.752 -91 255 0 255 255 
7 89.421 -90 255 0 255 255 
7 89.0899 -89 255 0 255 255 
7 88.7588 -88 255 0 255 255 
7 88.4278 -87 255 0 255 255 
7 88.0967 -86 255 0 255 255 
7 87.7656 -85 255 0 255 255 
7 87.4346 -84 255 0 255 255 
7 87.1035 -83 255 0 255 255 
7 86.7724 -82 255 0 255 255 
7 86.4414 -81 255 0 255 255 
7 86.1103 -80 255 0 255 255 
7 85.7792 -79 255 0 255 255 
7 85.4482 -78 255 0 255 255 
7 85.1171 -77 255 0 255 255 
7 84.7861 -76 255 0 255 255 
7 84.455 -75 255 0 255 255 
7 84.1239 -74 255 0 255 255 
7 83.7929 -73 255 0 255 255 
7 83.4618 -72 255 0 255 255 
7 83.1307 -71 255 0 255 255 
7 82.7997 -70 255 0 255 255 
7 82.4686 -69 255 0 255 255 
7 82.1375 -68 255 0 255 255 
7 81.8065 -67 255 0 255 255 
7 81.4754 -66 255 0 255 255 
7 81.1443 -65 255 0 255 255 
7 80.8133 -64 255 0 255 255 
7 80.4822 -63 255 0 255 255 
7 80.1512 -62 255 0 255 255 
7 79.8201 -61 255 0 255 255 
7 79.489 -60 255 0 255 255 
7 79.158 -59 255 0 255 255 
7 78.8269 -58 255 0 255 255 
7 78.4958 -57 255 0 255 255 
7 78.1648 -56 255 0 255 255 
7 77.8337 -55 255 0 255 255 
7 77.5026 -54 255 0 255 255 
7 77.1716 -53 255 0 255 255 
7 76.8405 -52 255 0 255 255 
7 76.5095 -51 255 0 255 255 
7 76.1784 -50 255 0 255 255 
7 75.8473 -49 255 0 255 255 
7 75.5163 -48 255 0 255 255 
