ply
format ascii 1.0
element vertex 297
property float x
property float y
property float z
property uchar red
property uchar green
property uchar blue
property uchar alpha
end_header
0.010001 0.0409676 0.638993 255 0 0 255 
1.01498e-06 0.0327695 0.633266 0 255 0 255 
-9.00531e-06 0.0466964 0.630809 0 0 255 255 
0.020001 0.0409733 0.638985 255 0 0 255 
1.01498e-06 0.0245772 0.627532 0 255 0 255 
-1.90256e-05 0.052431 0.622616 0 0 255 255 
0.030001 0.0409791 0.638976 255 0 0 255 
1.01498e-06 0.0163848 0.621797 0 255 0 255 
-2.90459e-05 0.0581657 0.614424 0 0 255 255 
0.040001 0.0409848 0.638968 255 0 0 255 
1.01497e-06 0.00819252 0.616062 0 255 0 255 
-3.90662e-05 0.0639003 0.606232 0 0 255 255 
0.050001 0.0409905 0.63896 255 0 0 255 
1.01497e-06 2.03025e-07 0.610328 0 255 0 255 
-4.90865e-05 0.0696349 0.598039 0 0 255 255 
0.060001 0.0409963 0.638952 255 0 0 255 
1.01497e-06 -0.00819212 0.604593 0 255 0 255 
-5.91068e-05 0.0753695 0.589847 0 0 255 255 
0.0700009 0.041002 0.638943 255 0 0 255 
1.01497e-06 -0.0163844 0.598859 0 255 0 255 
-6.9127e-05 0.0811041 0.581655 0 0 255 255 
0.0800009 0.0410078 0.638935 255 0 0 255 
1.01497e-06 -0.0245768 0.593124 0 255 0 255 
-7.91473e-05 0.0868387 0.573462 0 0 255 255 
0.0900009 0.0410135 0.638927 255 0 0 255 
1.01497e-06 -0.0327691 0.587389 0 255 0 255 
-8.91676e-05 0.0925734 0.56527 0 0 255 255 
0.100001 0.0410193 0.638919 255 0 0 255 
1.01497e-06 -0.0409614 0.581655 0 255 0 255 
-9.91879e-05 0.098308 0.557078 0 0 255 255 
0.110001 0.041025 0.638911 255 0 0 255 
1.01497e-06 -0.0491537 0.57592 0 255 0 255 
-0.000109208 0.104043 0.548886 0 0 255 255 
0.120001 0.0410308 0.638902 255 0 0 255 
1.01497e-06 -0.0573461 0.570185 0 255 0 255 
-0.000119228 0.109777 0.540693 0 0 255 255 
0.130001 0.0410365 0.638894 255 0 0 255 
1.01497e-06 -0.0655384 0.564451 0 255 0 255 
-0.000129249 0.115512 0.532501 0 0 255 255 
0.140001 0.0410423 0.638886 255 0 0 255 
1.01497e-06 -0.0737307 0.558716 0 255 0 255 
-0.000139269 0.121246 0.524309 0 0 255 255 
0.150001 0.041048 0.638878 255 0 0 255 
1.01497e-06 -0.081923 0.552982 0 255 0 255 
-0.000149289 0.126981 0.516116 0 0 255 255 
0.160001 0.0410538 0.63887 255 0 0 255 
1.01497e-06 -0.0901153 0.547247 0 255 0 255 
-0.00015931 0.132716 0.507924 0 0 255 255 
0.170001 0.0410595 0.638861 255 0 0 255 
1.01496e-06 -0.0983077 0.541512 0 255 0 255 
-0.00016933 0.13845 0.499732 0 0 255 255 
0.180001 0.0410652 0.638853 255 0 0 255 
1.01496e-06 -0.1065 0.535778 0 255 0 255 
-0.00017935 0.144185 0.491539 0 0 255 255 
0.190001 0.041071 0.638845 255 0 0 255 
1.01496e-06 -0.114692 0.530043 0 255 0 255 
-0.000189371 0.14992 0.483347 0 0 255 255 
0.200001 0.0410767 0.638837 255 0 0 255 
1.01496e-06 -0.122885 0.524309 0 255 0 255 
-0.000199391 0.155654 0.475155 0 0 255 255 
0.210001 0.0410825 0.638829 255 0 0 255 
1.01496e-06 -0.131077 0.518574 0 255 0 255 
-0.000209411 0.161389 0.466962 0 0 255 255 
0.220001 0.0410882 0.63882 255 0 0 255 
1.01496e-06 -0.139269 0.512839 0 255 0 255 
-0.000219431 0.167123 0.45877 0 0 255 255 
0.230001 0.041094 0.638812 255 0 0 255 
1.01496e-06 -0.147462 0.507105 0 255 0 255 
-0.000229452 0.172858 0.450578 0 0 255 255 
0.240001 0.0410997 0.638804 255 0 0 255 
1.01496e-06 -0.155654 0.50137 0 255 0 255 
-0.000239472 0.178593 0.442385 0 0 255 255 
0.250001 0.0411055 0.638796 255 0 0 255 
1.01496e-06 -0.163846 0.495635 0 255 0 255 
-0.000249492 0.184327 0.434193 0 0 255 255 
0.260001 0.0411112 0.638788 255 0 0 255 
1.01496e-06 -0.172039 0.489901 0 255 0 255 
-0.000259513 0.190062 0.426001 0 0 255 255 
0.270001 0.041117 0.638779 255 0 0 255 
1.01496e-06 -0.180231 0.484166 0 255 0 255 
-0.000269533 0.195796 0.417809 0 0 255 255 
0.280001 0.0411227 0.638771 255 0 0 255 
1.01496e-06 -0.188423 0.478432 0 255 0 255 
-0.000279553 0.201531 0.409616 0 0 255 255 
0.290001 0.0411285 0.638763 255 0 0 255 
1.01495e-06 -0.196616 0.472697 0 255 0 255 
-0.000289573 0.207266 0.401424 0 0 255 255 
0.300001 0.0411342 0.638755 255 0 0 255 
1.01495e-06 -0.204808 0.466962 0 255 0 255 
-0.000299594 0.213 0.393232 0 0 255 255 
0.310001 0.0411399 0.638747 255 0 0 255 
1.01495e-06 -0.213 0.461228 0 255 0 255 
-0.000309614 0.218735 0.385039 0 0 255 255 
0.320001 0.0411457 0.638738 255 0 0 255 
1.01495e-06 -0.221192 0.455493 0 255 0 255 
-0.000319634 0.22447 0.376847 0 0 255 255 
0.330001 0.0411514 0.63873 255 0 0 255 
1.01495e-06 -0.229385 0.449758 0 255 0 255 
-0.000329655 0.230204 0.368655 0 0 255 255 
0.340001 0.0411572 0.638722 255 0 0 255 
1.01495e-06 -0.237577 0.444024 0 255 0 255 
-0.000339675 0.235939 0.360462 0 0 255 255 
0.350001 0.0411629 0.638714 255 0 0 255 
1.01495e-06 -0.245769 0.438289 0 255 0 255 
-0.000349695 0.241673 0.35227 0 0 255 255 
0.360001 0.0411687 0.638705 255 0 0 255 
1.01495e-06 -0.253962 0.432555 0 255 0 255 
-0.000359715 0.247408 0.344078 0 0 255 255 
0.370001 0.0411744 0.638697 255 0 0 255 
1.01495e-06 -0.262154 0.42682 0 255 0 255 
-0.000369736 0.253143 0.335885 0 0 255 255 
0.380001 0.0411802 0.638689 255 0 0 255 
1.01495e-06 -0.270346 0.421085 0 255 0 255 
-0.000379756 0.258877 0.327693 0 0 255 255 
0.390001 0.0411859 0.638681 255 0 0 255 
1.01495e-06 -0.278539 0.415351 0 255 0 255 
-0.000389776 0.264612 0.319501 0 0 255 255 
0.400001 0.0411917 0.638673 255 0 0 255 
1.01495e-06 -0.286731 0.409616 0 255 0 255 
-0.000399797 0.270346 0.311308 0 0 255 255 
0.410001 0.0411974 0.638664 255 0 0 255 
1.01494e-06 -0.294923 0.403881 0 255 0 255 
-0.000409817 0.276081 0.303116 0 0 255 255 
0.420001 0.0412032 0.638656 255 0 0 255 
1.01494e-06 -0.303116 0.398147 0 255 0 255 
-0.000419837 0.281816 0.294924 0 0 255 255 
0.430001 0.0412089 0.638648 255 0 0 255 
1.01494e-06 -0.311308 0.392412 0 255 0 255 
-0.000429857 0.28755 0.286731 0 0 255 255 
0.440001 0.0412146 0.63864 255 0 0 255 
1.01494e-06 -0.3195 0.386678 0 255 0 255 
-0.000439878 0.293285 0.278539 0 0 255 255 
0.450001 0.0412204 0.638632 255 0 0 255 
1.01494e-06 -0.327693 0.380943 0 255 0 255 
-0.000449898 0.29902 0.270347 0 0 255 255 
0.460001 0.0412261 0.638623 255 0 0 255 
1.01494e-06 -0.335885 0.375208 0 255 0 255 
-0.000459918 0.304754 0.262155 0 0 255 255 
0.470001 0.0412319 0.638615 255 0 0 255 
1.01494e-06 -0.344077 0.369474 0 255 0 255 
-0.000469939 0.310489 0.253962 0 0 255 255 
0.480001 0.0412376 0.638607 255 0 0 255 
1.01494e-06 -0.35227 0.363739 0 255 0 255 
-0.000479959 0.316223 0.24577 0 0 255 255 
0.490001 0.0412434 0.638599 255 0 0 255 
1.01494e-06 -0.360462 0.358005 0 255 0 255 
-0.000489979 0.321958 0.237578 0 0 255 255 
0.500001 0.0412491 0.638591 255 0 0 255 
1.01494e-06 -0.368654 0.35227 0 255 0 255 
-0.000499999 0.327693 0.229385 0 0 255 255 
0.51 0.0412549 0.638582 255 0 0 255 
1.01494e-06 -0.376847 0.346535 0 255 0 255 
-0.00051002 0.333427 0.221193 0 0 255 255 
0.52 0.0412606 0.638574 255 0 0 255 
1.01494e-06 -0.385039 0.340801 0 255 0 255 
-0.00052004 0.339162 0.213001 0 0 255 255 
0.53 0.0412664 0.638566 255 0 0 255 
1.01493e-06 -0.393231 0.335066 0 255 0 255 
-0.00053006 0.344896 0.204808 0 0 255 255 
0.54 0.0412721 0.638558 255 0 0 255 
1.01493e-06 -0.401424 0.329331 0 255 0 255 
-0.000540081 0.350631 0.196616 0 0 255 255 
0.55 0.0412779 0.638549 255 0 0 255 
1.01493e-06 -0.409616 0.323597 0 255 0 255 
-0.000550101 0.356366 0.188424 0 0 255 255 
0.56 0.0412836 0.638541 255 0 0 255 
1.01493e-06 -0.417808 0.317862 0 255 0 255 
-0.000560121 0.3621 0.180231 0 0 255 255 
0.57 0.0412893 0.638533 255 0 0 255 
1.01493e-06 -0.426001 0.312128 0 255 0 255 
-0.000570141 0.367835 0.172039 0 0 255 255 
0.58 0.0412951 0.638525 255 0 0 255 
1.01493e-06 -0.434193 0.306393 0 255 0 255 
-0.000580162 0.37357 0.163847 0 0 255 255 
0.59 0.0413008 0.638517 255 0 0 255 
1.01493e-06 -0.442385 0.300658 0 255 0 255 
-0.000590182 0.379304 0.155654 0 0 255 255 
0.6 0.0413066 0.638508 255 0 0 255 
1.01493e-06 -0.450577 0.294924 0 255 0 255 
-0.000600202 0.385039 0.147462 0 0 255 255 
0.61 0.0413123 0.6385 255 0 0 255 
1.01493e-06 -0.45877 0.289189 0 255 0 255 
-0.000610223 0.390773 0.13927 0 0 255 255 
0.62 0.0413181 0.638492 255 0 0 255 
1.01493e-06 -0.466962 0.283454 0 255 0 255 
-0.000620243 0.396508 0.131077 0 0 255 255 
0.63 0.0413238 0.638484 255 0 0 255 
1.01493e-06 -0.475154 0.27772 0 255 0 255 
-0.000630263 0.402243 0.122885 0 0 255 255 
0.64 0.0413296 0.638476 255 0 0 255 
1.01493e-06 -0.483347 0.271985 0 255 0 255 
-0.000640284 0.407977 0.114693 0 0 255 255 
0.65 0.0413353 0.638467 255 0 0 255 
1.01493e-06 -0.491539 0.266251 0 255 0 255 
-0.000650304 0.413712 0.106501 0 0 255 255 
0.66 0.0413411 0.638459 255 0 0 255 
1.01492e-06 -0.499731 0.260516 0 255 0 255 
-0.000660324 0.419446 0.0983083 0 0 255 255 
0.67 0.0413468 0.638451 255 0 0 255 
1.01492e-06 -0.507924 0.254781 0 255 0 255 
-0.000670344 0.425181 0.090116 0 0 255 255 
0.68 0.0413526 0.638443 255 0 0 255 
1.01492e-06 -0.516116 0.249047 0 255 0 255 
-0.000680365 0.430916 0.0819236 0 0 255 255 
0.69 0.0413583 0.638435 255 0 0 255 
1.01492e-06 -0.524308 0.243312 0 255 0 255 
-0.000690385 0.43665 0.0737313 0 0 255 255 
0.7 0.041364 0.638426 255 0 0 255 
1.01492e-06 -0.532501 0.237577 0 255 0 255 
-0.000700405 0.442385 0.065539 0 0 255 255 
0.71 0.0413698 0.638418 255 0 0 255 
1.01492e-06 -0.540693 0.231843 0 255 0 255 
-0.000710425 0.44812 0.0573467 0 0 255 255 
0.72 0.0413755 0.63841 255 0 0 255 
1.01492e-06 -0.548885 0.226108 0 255 0 255 
-0.000720446 0.453854 0.0491544 0 0 255 255 
0.73 0.0413813 0.638402 255 0 0 255 
1.01492e-06 -0.557078 0.220374 0 255 0 255 
-0.000730466 0.459589 0.0409621 0 0 255 255 
0.74 0.041387 0.638394 255 0 0 255 
1.01492e-06 -0.56527 0.214639 0 255 0 255 
-0.000740486 0.465323 0.0327697 0 0 255 255 
0.75 0.0413928 0.638385 255 0 0 255 
1.01492e-06 -0.573462 0.208904 0 255 0 255 
-0.000750507 0.471058 0.0245774 0 0 255 255 
0.76 0.0413985 0.638377 255 0 0 255 
1.01492e-06 -0.581655 0.20317 0 255 0 255 
-0.000760527 0.476793 0.0163851 0 0 255 255 
0.77 0.0414043 0.638369 255 0 0 255 
1.01492e-06 -0.589847 0.197435 0 255 0 255 
-0.000770547 0.482527 0.00819281 0 0 255 255 
0.78 0.04141 0.638361 255 0 0 255 
1.01491e-06 -0.598039 0.191701 0 255 0 255 
-0.000780568 0.488262 5.04203e-07 0 0 255 255 
0.79 0.0414158 0.638352 255 0 0 255 
1.01491e-06 -0.606232 0.185966 0 255 0 255 
-0.000790588 0.493996 -0.0081918 0 0 255 255 
0.8 0.0414215 0.638344 255 0 0 255 
1.01491e-06 -0.614424 0.180231 0 255 0 255 
-0.000800608 0.499731 -0.0163841 0 0 255 255 
0.81 0.0414273 0.638336 255 0 0 255 
1.01491e-06 -0.622616 0.174497 0 255 0 255 
-0.000810628 0.505466 -0.0245765 0 0 255 255 
0.82 0.041433 0.638328 255 0 0 255 
1.01491e-06 -0.630809 0.168762 0 255 0 255 
-0.000820649 0.5112 -0.0327688 0 0 255 255 
0.83 0.0414388 0.63832 255 0 0 255 
1.01491e-06 -0.639001 0.163027 0 255 0 255 
-0.000830669 0.516935 -0.0409611 0 0 255 255 
0.84 0.0414445 0.638311 255 0 0 255 
1.01491e-06 -0.647193 0.157293 0 255 0 255 
-0.000840689 0.522669 -0.0491534 0 0 255 255 
0.85 0.0414502 0.638303 255 0 0 255 
1.01491e-06 -0.655386 0.151558 0 255 0 255 
-0.00085071 0.528404 -0.0573457 0 0 255 255 
0.86 0.041456 0.638295 255 0 0 255 
1.01491e-06 -0.663578 0.145824 0 255 0 255 
-0.00086073 0.534139 -0.065538 0 0 255 255 
0.87 0.0414617 0.638287 255 0 0 255 
1.01491e-06 -0.67177 0.140089 0 255 0 255 
-0.00087075 0.539873 -0.0737303 0 0 255 255 
0.88 0.0414675 0.638279 255 0 0 255 
1.01491e-06 -0.679963 0.134354 0 255 0 255 
-0.00088077 0.545608 -0.0819227 0 0 255 255 
0.89 0.0414732 0.63827 255 0 0 255 
1.01491e-06 -0.688155 0.12862 0 255 0 255 
-0.000890791 0.551343 -0.090115 0 0 255 255 
0.9 0.041479 0.638262 255 0 0 255 
1.0149e-06 -0.696347 0.122885 0 255 0 255 
-0.000900811 0.557077 -0.0983073 0 0 255 255 
0.91 0.0414847 0.638254 255 0 0 255 
1.0149e-06 -0.704539 0.11715 0 255 0 255 
-0.000910831 0.562812 -0.1065 0 0 255 255 
0.92 0.0414905 0.638246 255 0 0 255 
1.0149e-06 -0.712732 0.111416 0 255 0 255 
-0.000920852 0.568546 -0.114692 0 0 255 255 
0.93 0.0414962 0.638238 255 0 0 255 
1.0149e-06 -0.720924 0.105681 0 255 0 255 
-0.000930872 0.574281 -0.122884 0 0 255 255 
0.94 0.041502 0.638229 255 0 0 255 
1.0149e-06 -0.729116 0.0999465 0 255 0 255 
-0.000940892 0.580016 -0.131077 0 0 255 255 
0.95 0.0415077 0.638221 255 0 0 255 
1.0149e-06 -0.737309 0.0942119 0 255 0 255 
-0.000950912 0.58575 -0.139269 0 0 255 255 
0.96 0.0415135 0.638213 255 0 0 255 
1.0149e-06 -0.745501 0.0884773 0 255 0 255 
-0.000960933 0.591485 -0.147461 0 0 255 255 
0.97 0.0415192 0.638205 255 0 0 255 
1.0149e-06 -0.753693 0.0827427 0 255 0 255 
-0.000970953 0.59722 -0.155653 0 0 255 255 
0.98 0.0415249 0.638196 255 0 0 255 
1.0149e-06 -0.761886 0.0770081 0 255 0 255 
-0.000980973 0.602954 -0.163846 0 0 255 255 
0.99 0.0415307 0.638188 255 0 0 255 
1.0149e-06 -0.770078 0.0712735 0 255 0 255 
-0.000990994 0.608689 -0.172038 0 0 255 255 
