ply
format ascii 1.0
element vertex 285
property float x
property float y
property float z
property uchar red
property uchar green
property uchar blue
property uchar alpha
end_header
-0.00282657 0.00557643 0.664871 0 0 0 255 
-0.00255131 0.00587228 0.666804 0 0 0 255 
-0.0017178 0.00621315 0.673442 0 0 0 255 
-0.00199596 0.00646916 0.670704 0 0 0 255 
-0.00743397 0.00628551 0.624511 0 0 0 255 
-0.00790928 0.00650164 0.620146 0 0 0 255 
-0.00766637 0.00678004 0.621827 0 0 0 255 
-0.00766232 0.00703709 0.621498 0 0 0 255 
-0.00789679 0.00727033 0.619166 0 0 0 255 
-0.00765422 0.00755037 0.620842 0 0 0 255 
-0.00788848 0.00778144 0.618514 0 0 0 255 
-0.00764615 0.00806257 0.620187 0 0 0 255 
-0.00764212 0.00831826 0.61986 0 0 0 255 
-0.00787605 0.0085461 0.617539 0 0 0 255 
-0.00787191 0.00880045 0.617215 0 0 0 255 
-0.00786778 0.00905453 0.616891 0 0 0 255 
-0.00762603 0.00933835 0.618555 0 0 0 255 
-0.00785953 0.0095619 0.616244 0 0 0 255 
-0.00761801 0.00984679 0.617905 0 0 0 255 
-0.00761401 0.0101006 0.61758 0 0 0 255 
-0.00761001 0.0103542 0.617256 0 0 0 255 
-0.00760602 0.0106074 0.616932 0 0 0 255 
-0.00760203 0.0108605 0.616608 0 0 0 255 
-0.00759805 0.0111132 0.616285 0 0 0 255 
-0.00759406 0.0113657 0.615962 0 0 0 255 
-0.00759009 0.0116179 0.61564 0 0 0 255 
-0.00758611 0.0118699 0.615317 0 0 0 255 
-0.00758215 0.0121216 0.614995 0 0 0 255 
-0.00757818 0.012373 0.614674 0 0 0 255 
-0.00757422 0.0126242 0.614353 0 0 0 255 
-0.00757026 0.0128751 0.614032 0 0 0 255 
-0.00756631 0.0131257 0.613711 0 0 0 255 
-0.00756236 0.0133761 0.613391 0 0 0 255 
-0.00732117 0.0136699 0.615036 0 0 0 255 
-0.00731735 0.0139205 0.614714 0 0 0 255 
-0.00731352 0.0141709 0.614393 0 0 0 255 
-0.0073097 0.014421 0.614072 0 0 0 255 
-0.00730588 0.0146709 0.613751 0 0 0 255 
-0.00730207 0.0149205 0.613431 0 0 0 255 
-0.00729826 0.0151698 0.613111 0 0 0 255 
-0.00729446 0.0154189 0.612792 0 0 0 255 
-0.00729066 0.0156677 0.612472 0 0 0 255 
-0.0070491 0.0159672 0.614112 0 0 0 255 
-0.00704542 0.0162163 0.613792 0 0 0 255 
-0.00704175 0.0164651 0.613471 0 0 0 255 
-0.00703807 0.0167136 0.613151 0 0 0 255 
-0.0070344 0.0169619 0.612832 0 0 0 255 
-0.00703074 0.0172099 0.612512 0 0 0 255 
-0.00702708 0.0174577 0.612193 0 0 0 255 
-0.00702342 0.0177052 0.611875 0 0 0 255 
-0.00701977 0.0179525 0.611556 0 0 0 255 
-0.00677785 0.0182576 0.613192 0 0 0 255 
-0.00677431 0.0185051 0.612872 0 0 0 255 
-0.00677078 0.0187523 0.612553 0 0 0 255 
-0.00676726 0.0189993 0.612234 0 0 0 255 
-0.00676374 0.019246 0.611915 0 0 0 255 
-0.00676022 0.0194925 0.611596 0 0 0 255 
-0.0067567 0.0197387 0.611278 0 0 0 255 
-0.00675319 0.0199847 0.610961 0 0 0 255 
-0.00674968 0.0202304 0.610643 0 0 0 255 
-0.0065074 0.0205412 0.612274 0 0 0 255 
-0.00650402 0.0207871 0.611955 0 0 0 255 
-0.00650063 0.0210328 0.611636 0 0 0 255 
-0.00649725 0.0212782 0.611318 0 0 0 255 
-0.00649388 0.0215234 0.611001 0 0 0 255 
-0.0064905 0.0217683 0.610683 0 0 0 255 
-0.00648713 0.022013 0.610366 0 0 0 255 
-0.00648377 0.0222574 0.610049 0 0 0 255 
-0.00624102 0.0225732 0.611677 0 0 0 255 
-0.00623777 0.0228179 0.611358 0 0 0 255 
-0.00623453 0.0230623 0.611041 0 0 0 255 
-0.00623129 0.0233064 0.610723 0 0 0 255 
-0.00622805 0.0235503 0.610406 0 0 0 255 
-0.00622482 0.0237939 0.610089 0 0 0 255 
-0.00622159 0.0240373 0.609773 0 0 0 255 
-0.00621837 0.0242804 0.609457 0 0 0 255 
-0.00597515 0.0246014 0.611081 0 0 0 255 
-0.00597204 0.0248447 0.610763 0 0 0 255 
-0.00596894 0.0250878 0.610446 0 0 0 255 
-0.00596584 0.0253306 0.610129 0 0 0 255 
-0.00596275 0.0255732 0.609813 0 0 0 255 
-0.00595966 0.0258156 0.609496 0 0 0 255 
-0.00571573 0.0261406 0.61112 0 0 0 255 
-0.00571276 0.0263832 0.610803 0 0 0 255 
-0.00570979 0.0266255 0.610486 0 0 0 255 
-0.00570683 0.0268676 0.610169 0 0 0 255 
-0.00570387 0.0271094 0.609852 0 0 0 255 
-0.00570091 0.027351 0.609536 0 0 0 255 
-0.00569796 0.0275923 0.60922 0 0 0 255 
-0.00569501 0.0278333 0.608905 0 0 0 255 
-0.00545061 0.0281635 0.610526 0 0 0 255 
-0.00544778 0.0284047 0.610209 0 0 0 255 
-0.00544496 0.0286458 0.609892 0 0 0 255 
-0.00544214 0.0288865 0.609576 0 0 0 255 
-0.00543931 0.0291271 0.60926 0 0 0 255 
-0.0054365 0.0293673 0.608944 0 0 0 255 
-0.00543368 0.0296074 0.608629 0 0 0 255 
-0.0051887 0.0299421 0.610249 0 0 0 255 
-0.00518601 0.0301823 0.609932 0 0 0 255 
-0.00518332 0.0304223 0.609616 0 0 0 255 
-0.00518064 0.0306621 0.6093 0 0 0 255 
-0.00517795 0.0309016 0.608984 0 0 0 255 
-0.00517527 0.0311408 0.608669 0 0 0 255 
-0.00492959 0.0314796 0.610288 0 0 0 255 
-0.00492703 0.0317191 0.609972 0 0 0 255 
-0.00492448 0.0319583 0.609655 0 0 0 255 
-0.00492193 0.0321973 0.609339 0 0 0 255 
-0.00491938 0.032436 0.609024 0 0 0 255 
-0.00491683 0.0326745 0.608708 0 0 0 255 
-0.00491428 0.0329127 0.608393 0 0 0 255 
-0.00466802 0.0332561 0.610011 0 0 0 255 
-0.0046656 0.0334945 0.609695 0 0 0 255 
-0.00466318 0.0337327 0.609379 0 0 0 255 
-0.00466076 0.0339706 0.609063 0 0 0 255 
-0.00465835 0.0342083 0.608748 0 0 0 255 
-0.00465594 0.0344458 0.608433 0 0 0 255 
-0.00440897 0.0347932 0.610051 0 0 0 255 
-0.00440669 0.0350309 0.609735 0 0 0 255 
-0.0044044 0.0352683 0.609419 0 0 0 255 
-0.00440212 0.0355054 0.609103 0 0 0 255 
-0.00439984 0.0357423 0.608787 0 0 0 255 
-0.00415205 0.0360935 0.610408 0 0 0 255 
-0.00414989 0.0363306 0.610091 0 0 0 255 
-0.00414774 0.0365674 0.609775 0 0 0 255 
-0.00414559 0.0368041 0.609458 0 0 0 255 
-0.00414344 0.0370405 0.609143 0 0 0 255 
-0.0041413 0.0372766 0.608827 0 0 0 255 
-0.00413915 0.0375125 0.608512 0 0 0 255 
-0.00413701 0.0377481 0.608197 0 0 0 255 
-0.00388876 0.0381042 0.609814 0 0 0 255 
-0.00413273 0.0382187 0.607569 0 0 0 255 
-0.00388473 0.0385757 0.609182 0 0 0 255 
-0.00388272 0.038811 0.608867 0 0 0 255 
-0.00388071 0.0390461 0.608552 0 0 0 255 
-0.0038787 0.039281 0.608237 0 0 0 255 
-0.00387669 0.0395156 0.607922 0 0 0 255 
-0.00387469 0.03975 0.607608 0 0 0 255 
-0.00387269 0.0399842 0.607294 0 0 0 255 
-0.00362411 0.0403457 0.608906 0 0 0 255 
-0.00362223 0.04058 0.608591 0 0 0 255 
-0.00362036 0.0408141 0.608276 0 0 0 255 
-0.00361848 0.0410479 0.607962 0 0 0 255 
-0.00361661 0.0412816 0.607647 0 0 0 255 
-0.00361474 0.0415149 0.607333 0 0 0 255 
-0.00336546 0.0418805 0.608946 0 0 0 255 
-0.00361101 0.0419809 0.606707 0 0 0 255 
-0.00336198 0.0423474 0.608316 0 0 0 255 
-0.00336024 0.0425805 0.608001 0 0 0 255 
-0.0033585 0.0428133 0.607687 0 0 0 255 
-0.00335677 0.0430459 0.607373 0 0 0 255 
-0.00335503 0.0432782 0.607059 0 0 0 255 
-0.0033533 0.0435103 0.606746 0 0 0 255 
-0.00310357 0.0438809 0.608355 0 0 0 255 
-0.00310196 0.0441132 0.608041 0 0 0 255 
-0.00310036 0.0443452 0.607726 0 0 0 255 
-0.00309875 0.044577 0.607412 0 0 0 255 
-0.00309715 0.0448086 0.607099 0 0 0 255 
-0.00309556 0.0450399 0.606785 0 0 0 255 
-0.00284512 0.0454145 0.608395 0 0 0 255 
-0.00284365 0.0456461 0.60808 0 0 0 255 
-0.00284218 0.0458773 0.607766 0 0 0 255 
-0.00284071 0.0461084 0.607452 0 0 0 255 
-0.00283924 0.0463392 0.607138 0 0 0 255 
-0.00283778 0.0465697 0.606825 0 0 0 255 
-0.00258664 0.0469484 0.608435 0 0 0 255 
-0.0025853 0.0471792 0.60812 0 0 0 255 
-0.00258397 0.0474097 0.607805 0 0 0 255 
-0.00258263 0.0476399 0.607491 0 0 0 255 
-0.0025813 0.0478699 0.607178 0 0 0 255 
-0.00257996 0.0480997 0.606864 0 0 0 255 
-0.00232813 0.0484825 0.608474 0 0 0 255 
-0.00232692 0.0487125 0.608159 0 0 0 255 
-0.00232572 0.0489422 0.607845 0 0 0 255 
-0.00232452 0.0491717 0.607531 0 0 0 255 
-0.00232332 0.0494009 0.607217 0 0 0 255 
-0.00207065 0.0497874 0.608829 0 0 0 255 
-0.00206958 0.0500168 0.608514 0 0 0 255 
-0.00206851 0.050246 0.608199 0 0 0 255 
-0.00206744 0.0504749 0.607884 0 0 0 255 
-0.00206637 0.0507036 0.60757 0 0 0 255 
-0.00206531 0.0509321 0.607256 0 0 0 255 
-0.00181194 0.0513226 0.608869 0 0 0 255 
-0.001811 0.0515513 0.608553 0 0 0 255 
-0.00181007 0.0517797 0.608239 0 0 0 255 
-0.00180913 0.0520078 0.607924 0 0 0 255 
-0.0015548 0.0524017 0.60954 0 0 0 255 
-0.001554 0.05263 0.609224 0 0 0 255 
-0.00155319 0.0528581 0.608908 0 0 0 255 
-0.00155239 0.053086 0.608593 0 0 0 255 
-0.00155159 0.0533136 0.608278 0 0 0 255 
-0.00155078 0.053541 0.607964 0 0 0 255 
-0.00129575 0.0539389 0.609579 0 0 0 255 
-0.00129508 0.0541664 0.609263 0 0 0 255 
-0.00129441 0.0543938 0.608948 0 0 0 255 
-0.00129374 0.0546208 0.608633 0 0 0 255 
-0.00103775 0.0550221 0.610252 0 0 0 255 
-0.00103721 0.0552493 0.609935 0 0 0 255 
-0.00103667 0.0554763 0.609619 0 0 0 255 
-0.00103613 0.0557031 0.609303 0 0 0 255 
-0.0010356 0.0559296 0.608988 0 0 0 255 
-0.000778765 0.0563346 0.610609 0 0 0 255 
-0.000778361 0.0565613 0.610292 0 0 0 255 
-0.000777957 0.0567877 0.609975 0 0 0 255 
-0.000777554 0.0570139 0.609659 0 0 0 255 
-0.000519751 0.0574223 0.611284 0 0 0 255 
-0.000519481 0.0576486 0.610966 0 0 0 255 
-0.000519211 0.0578748 0.610649 0 0 0 255 
-0.000518941 0.0581007 0.610332 0 0 0 255 
-0.000260163 0.0585123 0.61196 0 0 0 255 
-0.000260028 0.0587384 0.611642 0 0 0 255 
-0.000259892 0.0589642 0.611324 0 0 0 255 
-0.000259757 0.0591898 0.611006 0 0 0 255 
3.16474e-12 0.0596048 0.612638 0 0 0 255 
-1.93746e-12 0.0598306 0.612319 0 0 0 255 
3.27672e-13 0.0600561 0.612 0 0 0 255 
-2.37689e-12 0.0602813 0.611682 0 0 0 255 
2.28588e-12 0.0605064 0.611364 0 0 0 255 
0.000260604 0.0609252 0.612998 0 0 0 255 
0.000260468 0.0611503 0.612678 0 0 0 255 
0.000260333 0.0613753 0.612359 0 0 0 255 
0.000260197 0.0616 0.61204 0 0 0 255 
0.000521787 0.0620222 0.613678 0 0 0 255 
0.000521514 0.062247 0.613358 0 0 0 255 
0.000521242 0.0624717 0.613038 0 0 0 255 
0.000520971 0.062696 0.612719 0 0 0 255 
0.000783549 0.0631216 0.61436 0 0 0 255 
0.00078314 0.0633462 0.614039 0 0 0 255 
0.000782731 0.0635705 0.613718 0 0 0 255 
0.00104644 0.0639991 0.615365 0 0 0 255 
0.00104589 0.0642235 0.615043 0 0 0 255 
0.00104535 0.0644477 0.614721 0 0 0 255 
0.0010448 0.0646717 0.6144 0 0 0 255 
0.00130951 0.0651038 0.616051 0 0 0 255 
0.00130882 0.0653279 0.615728 0 0 0 255 
0.00130814 0.0655518 0.615406 0 0 0 255 
0.00130745 0.0657754 0.615084 0 0 0 255 
0.00157316 0.0662109 0.616738 0 0 0 255 
0.00157234 0.0664347 0.616414 0 0 0 255 
0.00157151 0.0666583 0.616091 0 0 0 255 
0.00183837 0.0670969 0.617751 0 0 0 255 
0.00183741 0.0673206 0.617426 0 0 0 255 
0.00183644 0.067544 0.617102 0 0 0 255 
0.00210445 0.0679857 0.618767 0 0 0 255 
0.00210335 0.0682093 0.618442 0 0 0 255 
0.00210224 0.0684327 0.618116 0 0 0 255 
0.00210114 0.0686558 0.617791 0 0 0 255 
0.00237016 0.069101 0.61946 0 0 0 255 
0.00236891 0.0693242 0.619134 0 0 0 255 
0.00263925 0.0697723 0.62081 0 0 0 255 
0.00263786 0.0699956 0.620482 0 0 0 255 
0.00263647 0.0702188 0.620155 0 0 0 255 
0.00290798 0.0706699 0.621836 0 0 0 255 
0.00290644 0.0708932 0.621508 0 0 0 255 
0.0029049 0.0711162 0.621179 0 0 0 255 
0.00317759 0.0715706 0.622866 0 0 0 255 
0.00317591 0.0717938 0.622536 0 0 0 255 
0.00317423 0.0720167 0.622207 0 0 0 255 
0.0034481 0.0724742 0.623899 0 0 0 255 
0.00344627 0.0726973 0.623568 0 0 0 255 
0.00344445 0.0729201 0.623238 0 0 0 255 
0.00371951 0.0733809 0.624936 0 0 0 255 
0.00399608 0.0738442 0.626644 0 0 0 255 
0.00399395 0.0740675 0.62631 0 0 0 255 
0.00427188 0.0745337 0.628025 0 0 0 255 
0.0042696 0.0747571 0.62769 0 0 0 255 
0.00426732 0.0749803 0.627355 0 0 0 255 
0.00426504 0.0752033 0.62702 0 0 0 255 
0.00454403 0.0756731 0.628739 0 0 0 255 
0.0045416 0.0758962 0.628403 0 0 0 255 
0.00482197 0.076369 0.630129 0 0 0 255 
0.00481939 0.0765922 0.629792 0 0 0 255 
0.00510114 0.0770679 0.631526 0 0 0 255 
0.0050984 0.0772912 0.631187 0 0 0 255 
0.00509566 0.0775143 0.630848 0 0 0 255 
0.00537865 0.0779934 0.632588 0 0 0 255 
0.00537576 0.0782166 0.632248 0 0 0 255 
0.00566015 0.0786987 0.633996 0 0 0 255 
0.0056571 0.078922 0.633654 0 0 0 255 
0.0059429 0.0794071 0.63541 0 0 0 255 
0.0062303 0.0798949 0.637175 0 0 0 255 
0.00622692 0.0801187 0.63683 0 0 0 255 
0.00593328 0.0800767 0.634381 0 0 0 255 
-0.000992904 0.0739471 0.583882 0 0 0 255 
-0.000499242 0.0746089 0.587163 0 0 0 255 
-0.000746207 0.0745897 0.585081 0 0 0 255 
