ply
format ascii 1.0
element vertex 1027
property float x
property float y
property float z
property uchar red
property uchar green
property uchar blue
property uchar alpha
end_header
-0.0019712 -0.0359196 1.29593 85 127 0 255 
-0.00269907 -0.0361641 1.29625 85 127 0 255 
-0.00342616 -0.0364083 1.29657 85 127 0 255 
-0.00405035 -0.0359791 1.29658 85 127 0 255 
-0.00467446 -0.03555 1.2966 85 127 0 255 
-0.00539998 -0.0357943 1.29692 85 127 0 255 
-0.0060236 -0.0353655 1.29693 85 127 0 255 
-0.00674804 -0.0356098 1.29725 85 127 0 255 
-0.00727048 -0.0345081 1.29696 85 127 0 255 
-0.00809453 -0.0354255 1.29758 85 127 0 255 
-0.0086171 -0.0343244 1.29729 85 127 0 255 
-0.00923987 -0.033896 1.2973 85 127 0 255 
-0.00996214 -0.0341409 1.29762 85 127 0 255 
-0.0105844 -0.0337128 1.29764 85 127 0 255 
-0.0112066 -0.0332848 1.29765 85 127 0 255 
-0.0119274 -0.0335298 1.29797 85 127 0 255 
-0.0126473 -0.0337745 1.29829 85 127 0 255 
-0.0131707 -0.0326745 1.29799 85 127 0 255 
-0.0138899 -0.0329196 1.29831 85 127 0 255 
-0.0144136 -0.0318194 1.29802 85 127 0 255 
-0.015132 -0.0320649 1.29834 85 127 0 255 
-0.015753 -0.0316377 1.29835 85 127 0 255 
-0.0163737 -0.0312105 1.29837 85 127 0 255 
-0.0170907 -0.0314562 1.29868 85 127 0 255 
-0.0176151 -0.0303565 1.29839 85 127 0 255 
-0.0184269 -0.0312749 1.29902 85 127 0 255 
-0.0187605 -0.028829 1.29811 85 127 0 255 
-0.0194763 -0.0290759 1.29843 85 127 0 255 
-0.0200964 -0.0286491 1.29845 85 127 0 255 
-0.0207166 -0.0282225 1.29846 85 127 0 255 
-0.0212421 -0.0271217 1.29817 85 127 0 255 
-0.0221444 -0.0287163 1.29909 85 127 0 255 
-0.0224823 -0.0262686 1.2982 85 127 0 255 
-0.0231958 -0.0265166 1.29851 85 127 0 255 
-0.0238154 -0.0260904 1.29853 85 127 0 255 
-0.0244348 -0.0256642 1.29854 85 127 0 255 
-0.0249614 -0.0245632 1.29825 85 127 0 255 
-0.0255808 -0.0241369 1.29826 85 127 0 255 
-0.0262003 -0.0237108 1.29828 85 127 0 255 
-0.0268196 -0.0232848 1.29829 85 127 0 255 
-0.027347 -0.0221828 1.298 85 127 0 255 
-0.0280578 -0.0224329 1.29832 85 127 0 255 
-0.0286769 -0.0220071 1.29833 85 127 0 255 
-0.0290226 -0.0195506 1.29743 85 127 0 255 
-0.0296422 -0.0191245 1.29744 85 127 0 255 
-0.030171 -0.0180201 1.29715 85 127 0 255 
-0.0307907 -0.0175941 1.29716 85 127 0 255 
-0.0315003 -0.0178467 1.29748 85 127 0 255 
-0.0320296 -0.0167422 1.29719 85 127 0 255 
-0.0325593 -0.015637 1.2969 85 127 0 255 
-0.0329999 -0.0138504 1.2963 85 127 0 255 
-0.0334411 -0.0120609 1.2957 85 127 0 255 
-0.0343286 -0.0136793 1.29663 85 127 0 255 
-0.0347706 -0.0118908 1.29603 85 127 0 255 
-0.0352132 -0.0100995 1.29544 85 127 0 255 
-0.0355679 -0.00762074 1.29453 85 127 0 255 
-0.036189 -0.00719433 1.29454 85 127 0 255 
-0.0367217 -0.00608231 1.29425 85 127 0 255 
-0.0370788 -0.00359514 1.29334 85 127 0 255 
-0.0375247 -0.00179135 1.29274 85 127 0 255 
-0.0377954 0.00139725 1.29151 85 127 0 255 
-0.0379789 0.00529073 1.28997 85 127 0 255 
-0.038779 0.00433007 1.29061 85 127 0 255 
-0.0387009 0.0103269 1.28813 85 127 0 255 
-0.0402008 0.00379845 1.29126 85 127 0 255 
-0.0403021 0.00839325 1.28941 85 127 0 255 
0.02113 -0.0328979 1.28742 92 138 21 255 
0.0204678 -0.0332222 1.28785 92 138 21 255 
0.0198065 -0.0335461 1.28827 92 138 21 255 
0.019139 -0.0331837 1.28837 92 138 21 255 
0.0184857 -0.0341929 1.28911 92 138 21 255 
0.0178189 -0.033831 1.28922 92 138 21 255 
0.0171676 -0.0348385 1.28996 92 138 21 255 
0.0165096 -0.0351608 1.29038 92 138 21 255 
0.0158522 -0.0354828 1.2908 92 138 21 255 
0.0151956 -0.0358043 1.29122 92 138 21 255 
0.0145309 -0.0354431 1.29132 92 138 21 255 
0.0138663 -0.0350819 1.29142 92 138 21 255 
0.0132111 -0.0354035 1.29184 92 138 21 255 
0.0125566 -0.0357248 1.29226 92 138 21 255 
0.0118929 -0.035364 1.29236 92 138 21 255 
0.0112395 -0.035685 1.29278 92 138 21 255 
0.0105867 -0.0360058 1.2932 92 138 21 255 
0.00992397 -0.0356454 1.2933 92 138 21 255 
0.00927228 -0.0359659 1.29372 92 138 21 255 
0.00862123 -0.0362862 1.29413 92 138 21 255 
0.00797088 -0.0366062 1.29455 92 138 21 255 
0.00730944 -0.0362462 1.29465 92 138 21 255 
0.0066481 -0.0358864 1.29475 92 138 21 255 
0.00598687 -0.0355266 1.29485 92 138 21 255 
0.00535095 -0.0365259 1.29558 92 138 21 255 
0.00467761 -0.0354872 1.29537 92 138 21 255 
0.00403018 -0.0358071 1.29579 92 138 21 255 
0.00338338 -0.0361267 1.2962 92 138 21 255 
0.00273727 -0.0364459 1.29662 92 138 21 255 
0.00207784 -0.0360869 1.29672 92 138 21 255 
0.00141851 -0.035728 1.29682 92 138 21 255 
0.000773902 -0.0360471 1.29723 92 138 21 255 
0.000115074 -0.0356884 1.29733 92 138 21 255 
-0.000528518 -0.0360075 1.29775 92 138 21 255 
-0.00120221 -0.0349711 1.29754 92 138 21 255 
-0.00182942 -0.0359679 1.29826 92 138 21 255 
-0.00250313 -0.0349321 1.29805 92 138 21 255 
-0.00316109 -0.0345738 1.29815 92 138 21 255 
-0.00380253 -0.0348932 1.29856 92 138 21 255 
-0.00445999 -0.0345351 1.29866 92 138 21 255 
-0.00511735 -0.034177 1.29876 92 138 21 255 
-0.00575731 -0.0344964 1.29918 92 138 21 255 
-0.00639658 -0.0348154 1.29959 92 138 21 255 
-0.00707092 -0.0337808 1.29938 92 138 21 255 
-0.0077094 -0.0341001 1.29979 92 138 21 255 
-0.00838406 -0.0330654 1.29958 92 138 21 255 
-0.00902174 -0.033385 1.29999 92 138 21 255 
-0.0096778 -0.0330276 1.30009 92 138 21 255 
-0.0103337 -0.0326702 1.30019 92 138 21 255 
-0.01097 -0.0329899 1.3006 92 138 21 255 
-0.0116452 -0.0319557 1.30039 92 138 21 255 
-0.0122607 -0.0329521 1.30111 92 138 21 255 
-0.0129766 -0.0305636 1.30028 92 138 21 255 
-0.0136116 -0.0308843 1.30069 92 138 21 255 
-0.0142668 -0.0305272 1.30079 92 138 21 255 
-0.014922 -0.0301703 1.30089 92 138 21 255 
-0.0155984 -0.0291352 1.30069 92 138 21 255 
-0.0161885 -0.0308114 1.30171 92 138 21 255 
-0.0169087 -0.0284215 1.30089 92 138 21 255 
-0.0175414 -0.0287431 1.3013 92 138 21 255 
-0.018196 -0.0283865 1.3014 92 138 21 255 
-0.0188504 -0.0280298 1.3015 92 138 21 255 
-0.0195279 -0.0269947 1.30129 92 138 21 255 
-0.0201824 -0.026638 1.30139 92 138 21 255 
-0.0208368 -0.0262816 1.30149 92 138 21 255 
-0.0214911 -0.0259252 1.30159 92 138 21 255 
-0.0221695 -0.0248891 1.30138 92 138 21 255 
-0.0227993 -0.0252124 1.30179 92 138 21 255 
-0.0234534 -0.0248562 1.30189 92 138 21 255 
-0.0241825 -0.0224584 1.30106 92 138 21 255 
-0.0248371 -0.022102 1.30116 92 138 21 255 
-0.0255172 -0.0210637 1.30095 92 138 21 255 
-0.0261718 -0.0207074 1.30105 92 138 21 255 
-0.0268001 -0.0210331 1.30146 92 138 21 255 
-0.0274807 -0.0199947 1.30126 92 138 21 255 
-0.0281618 -0.0189557 1.30105 92 138 21 255 
-0.0288706 -0.0172318 1.30053 92 138 21 255 
-0.0295804 -0.0155053 1.30001 92 138 21 255 
-0.0301525 -0.0172034 1.30104 92 138 21 255 
-0.0308629 -0.0154779 1.30052 92 138 21 255 
-0.0315743 -0.0137497 1.3 92 138 21 255 
-0.0323156 -0.0113308 1.29917 92 138 21 255 
-0.0329716 -0.0109742 1.29927 92 138 21 255 
-0.0336567 -0.00992875 1.29906 92 138 21 255 
-0.0344016 -0.00750181 1.29822 92 138 21 255 
-0.0351182 -0.00576156 1.2977 92 138 21 255 
-0.0358965 -0.00263029 1.29655 92 138 21 255 
-0.0367081 0.0012088 1.29508 92 138 21 255 
-0.0373056 0.000171763 1.29581 92 138 21 255 
-0.0382153 0.00612319 1.29339 92 138 21 255 
-0.0385602 -0.000506129 1.29664 92 138 21 255 
-0.0394093 0.00403673 1.29485 92 138 21 255 
0.0252997 -0.0303603 1.28425 99 148 42 255 
0.0247402 -0.0307514 1.28476 99 148 42 255 
0.0241813 -0.031142 1.28527 99 148 42 255 
0.0234986 -0.0308534 1.28546 99 148 42 255 
0.0230652 -0.031922 1.28628 99 148 42 255 
0.0223832 -0.0316338 1.28647 99 148 42 255 
0.0219513 -0.0327005 1.28728 99 148 42 255 
0.0213953 -0.0330891 1.28779 99 148 42 255 
0.0208398 -0.0334774 1.28829 99 148 42 255 
0.020285 -0.0338651 1.28879 99 148 42 255 
0.0196051 -0.0335774 1.28899 99 148 42 255 
0.0189253 -0.0332897 1.28918 99 148 42 255 
0.0183717 -0.0336774 1.28968 99 148 42 255 
0.0178188 -0.0340647 1.29018 99 148 42 255 
0.0171399 -0.0337772 1.29038 99 148 42 255 
0.0165879 -0.0341641 1.29088 99 148 42 255 
0.0160365 -0.0345508 1.29138 99 148 42 255 
0.0153585 -0.0342636 1.29157 99 148 42 255 
0.0148081 -0.0346498 1.29207 99 148 42 255 
0.0142582 -0.0350358 1.29257 99 148 42 255 
0.0137089 -0.0354213 1.29307 99 148 42 255 
0.0130322 -0.0351345 1.29326 99 148 42 255 
0.0123557 -0.0348478 1.29345 99 148 42 255 
0.0116792 -0.0345611 1.29365 99 148 42 255 
0.0112603 -0.0356181 1.29445 99 148 42 255 
0.0104557 -0.0346601 1.29434 99 148 42 255 
0.00990911 -0.0350452 1.29483 99 148 42 255 
0.00936303 -0.0354301 1.29533 99 148 42 255 
0.00881753 -0.0358144 1.29583 99 148 42 255 
0.0081429 -0.0355283 1.29602 99 148 42 255 
0.00746838 -0.0352423 1.29621 99 148 42 255 
0.00692427 -0.0356264 1.29671 99 148 42 255 
0.00625025 -0.0353405 1.2969 99 148 42 255 
0.00570706 -0.0357244 1.29739 99 148 42 255 
0.00490259 -0.0347689 1.29728 99 148 42 255 
0.00449128 -0.0358224 1.29808 99 148 42 255 
0.00368689 -0.0348674 1.29797 99 148 42 255 
0.00301375 -0.0345818 1.29816 99 148 42 255 
0.00247261 -0.0349659 1.29865 99 148 42 255 
0.00179997 -0.0346804 1.29884 99 148 42 255 
0.00112744 -0.0343951 1.29904 99 148 42 255 
0.000587672 -0.0347789 1.29953 99 148 42 255 
4.84872e-05 -0.0351623 1.30002 99 148 42 255 
-0.00075629 -0.0342086 1.29991 99 148 42 255 
-0.00129468 -0.0345922 1.3004 99 148 42 255 
-0.00209977 -0.0336384 1.30029 99 148 42 255 
-0.00263737 -0.0340222 1.30079 99 148 42 255 
-0.00330859 -0.0337373 1.30098 99 148 42 255 
-0.00397964 -0.0334524 1.30117 99 148 42 255 
-0.004516 -0.0338362 1.30166 99 148 42 255 
-0.00532149 -0.032883 1.30155 99 148 42 255 
-0.00572194 -0.0339349 1.30234 99 148 42 255 
-0.00679843 -0.0316443 1.30163 99 148 42 255 
-0.00733333 -0.032029 1.30212 99 148 42 255 
-0.0080037 -0.0317444 1.30232 99 148 42 255 
-0.00867401 -0.0314599 1.30251 99 148 42 255 
-0.00948082 -0.0305059 1.3024 99 148 42 255 
-0.00974064 -0.0322285 1.30349 99 148 42 255 
-0.0108214 -0.029937 1.30278 99 148 42 255 
-0.0113539 -0.0303223 1.30327 99 148 42 255 
-0.0120237 -0.0300381 1.30346 99 148 42 255 
-0.0126932 -0.0297538 1.30365 99 148 42 255 
-0.0135011 -0.0287998 1.30354 99 148 42 255 
-0.0141707 -0.0285156 1.30374 99 148 42 255 
-0.0148402 -0.0282314 1.30393 99 148 42 255 
-0.0155097 -0.0279474 1.30412 99 148 42 255 
-0.0163185 -0.0269926 1.30401 99 148 42 255 
-0.0168481 -0.0273793 1.3045 99 148 42 255 
-0.0175172 -0.0270954 1.30469 99 148 42 255 
-0.0186076 -0.0247971 1.30399 99 148 42 255 
-0.0192773 -0.024513 1.30418 99 148 42 255 
-0.020088 -0.0235562 1.30407 99 148 42 255 
-0.0207578 -0.0232722 1.30426 99 148 42 255 
-0.0212855 -0.0236611 1.30475 99 148 42 255 
-0.0220968 -0.0227043 1.30464 99 148 42 255 
-0.0229086 -0.0217468 1.30454 99 148 42 255 
-0.023864 -0.020114 1.30413 99 148 42 255 
-0.0248209 -0.0184785 1.30372 99 148 42 255 
-0.0250603 -0.020221 1.30481 99 148 42 255 
-0.0260175 -0.0185867 1.3044 99 148 42 255 
-0.0269761 -0.0169497 1.304 99 148 42 255 
-0.0280814 -0.0146317 1.30329 99 148 42 255 
-0.0287524 -0.0143477 1.30348 99 148 42 255 
-0.0295691 -0.0133843 1.30338 99 148 42 255 
-0.0306791 -0.0110587 1.30267 99 148 42 255 
-0.0316446 -0.00941039 1.30226 99 148 42 255 
-0.0329069 -0.00639066 1.30125 99 148 42 255 
-0.034322 -0.00267326 1.29993 99 148 42 255 
-0.0346988 -0.00376355 1.30073 99 148 42 255 
-0.0365687 0.00203596 1.29849 99 148 42 255 
-0.035748 -0.00456735 1.30172 99 148 42 255 
-0.0373191 -0.00015677 1.3001 99 148 42 255 
0.0287007 -0.027409 1.28056 106 159 63 255 
0.0282608 -0.0278547 1.28114 106 159 63 255 
0.0278214 -0.0282999 1.28171 106 159 63 255 
0.0271442 -0.0280856 1.282 106 159 63 255 
0.0269439 -0.0291889 1.28286 106 159 63 255 
0.0262674 -0.0289748 1.28315 106 159 63 255 
0.0260682 -0.0300761 1.284 106 159 63 255 
0.025631 -0.030519 1.28458 106 159 63 255 
0.0251943 -0.0309615 1.28515 106 159 63 255 
0.024758 -0.0314034 1.28572 106 159 63 255 
0.0240836 -0.0311897 1.286 106 159 63 255 
0.0234092 -0.0309759 1.28629 106 159 63 255 
0.0229742 -0.0314177 1.28686 106 159 63 255 
0.0225395 -0.0318589 1.28743 106 159 63 255 
0.0218661 -0.0316454 1.28771 106 159 63 255 
0.0214324 -0.0320862 1.28828 106 159 63 255 
0.020999 -0.0325266 1.28885 106 159 63 255 
0.0203265 -0.0323133 1.28913 106 159 63 255 
0.019894 -0.0327533 1.2897 106 159 63 255 
0.0194619 -0.0331929 1.29027 106 159 63 255 
0.0190303 -0.033632 1.29083 106 159 63 255 
0.018359 -0.0334188 1.29112 106 159 63 255 
0.0176878 -0.0332058 1.2914 106 159 63 255 
0.0170167 -0.0329928 1.29169 106 159 63 255 
0.0168275 -0.034083 1.29253 106 159 63 255 
0.0159161 -0.0332188 1.29254 106 159 63 255 
0.0154869 -0.0336573 1.2931 106 159 63 255 
0.0150582 -0.0340953 1.29366 106 159 63 255 
0.0146299 -0.0345329 1.29422 106 159 63 255 
0.0139605 -0.0343203 1.29451 106 159 63 255 
0.0132913 -0.0341077 1.29479 106 159 63 255 
0.0128643 -0.0345449 1.29535 106 159 63 255 
0.0121955 -0.0343324 1.29564 106 159 63 255 
0.0117692 -0.0347693 1.2962 106 159 63 255 
0.0108584 -0.0339075 1.29621 106 159 63 255 
0.0106755 -0.0349935 1.29704 106 159 63 255 
0.00976488 -0.0341322 1.29705 106 159 63 255 
0.00909701 -0.0339199 1.29733 106 159 63 255 
0.00867263 -0.0343568 1.29789 106 159 63 255 
0.00800524 -0.0341446 1.29818 106 159 63 255 
0.00733796 -0.0339324 1.29846 106 159 63 255 
0.00691479 -0.0343689 1.29902 106 159 63 255 
0.00649208 -0.0348048 1.29957 106 159 63 255 
0.00558132 -0.0339449 1.29958 106 159 63 255 
0.00515937 -0.034381 1.30014 106 159 63 255 
0.00424832 -0.0335209 1.30015 106 159 63 255 
0.00382713 -0.0339572 1.3007 106 159 63 255 
0.00316115 -0.0337454 1.30099 106 159 63 255 
0.00249532 -0.0335336 1.30127 106 159 63 255 
0.00207525 -0.0339696 1.30183 106 159 63 255 
0.00116393 -0.0331102 1.30184 106 159 63 255 
0.000990674 -0.0341935 1.30266 106 159 63 255 
-0.000413675 -0.0320385 1.30213 106 159 63 255 
-0.000832247 -0.0324753 1.30268 106 159 63 255 
-0.0014974 -0.0322636 1.30296 106 159 63 255 
-0.00216248 -0.0320522 1.30325 106 159 63 255 
-0.00307515 -0.0311921 1.30326 106 159 63 255 
-0.00299685 -0.0329246 1.30436 106 159 63 255 
-0.00440525 -0.0307692 1.30382 106 159 63 255 
-0.00482155 -0.0312064 1.30438 106 159 63 255 
-0.00548606 -0.0309951 1.30466 106 159 63 255 
-0.00615042 -0.0307837 1.30494 106 159 63 255 
-0.00706404 -0.0299238 1.30495 106 159 63 255 
-0.00772842 -0.0297124 1.30523 106 159 63 255 
-0.00839273 -0.0295012 1.30551 106 159 63 255 
-0.00905694 -0.0292901 1.3058 106 159 63 255 
-0.00997157 -0.0284294 1.30581 106 159 63 255 
-0.0103849 -0.0288677 1.30636 106 159 63 255 
-0.0110488 -0.0286567 1.30664 106 159 63 255 
-0.0124673 -0.0264954 1.30611 106 159 63 255 
-0.0131317 -0.0262843 1.30639 106 159 63 255 
-0.0140485 -0.0254219 1.3064 106 159 63 255 
-0.014713 -0.0252108 1.30668 106 159 63 255 
-0.0151242 -0.0256511 1.30724 106 159 63 255 
-0.0160415 -0.0247887 1.30725 106 159 63 255 
-0.0169594 -0.0239258 1.30726 106 159 63 255 
-0.0181324 -0.0224092 1.307 106 159 63 255 
-0.0193072 -0.0208903 1.30674 106 159 63 255 
-0.0192066 -0.0226404 1.30783 106 159 63 255 
-0.0203815 -0.0211225 1.30757 106 159 63 255 
-0.0215583 -0.0196023 1.30731 106 159 63 255 
-0.0229939 -0.0174232 1.30678 106 159 63 255 
-0.0236596 -0.0172122 1.30706 106 159 63 255 
-0.024583 -0.0163439 1.30708 106 159 63 255 
-0.0260244 -0.0141578 1.30654 106 159 63 255 
-0.0272095 -0.012627 1.30628 106 159 63 255 
-0.0289175 -0.0097696 1.30547 106 159 63 255 
-0.0308931 -0.00623751 1.30438 106 159 63 255 
-0.0310377 -0.00735629 1.30522 106 159 63 255 
-0.0338109 -0.00181054 1.3033 106 159 63 255 
-0.0318496 -0.00826181 1.30633 106 159 63 255 
-0.034095 -0.00405982 1.30497 106 159 63 255 
0.0312296 -0.0241336 1.27647 113 170 85 255 
0.0309227 -0.0246201 1.2771 113 170 85 255 
0.0306161 -0.025106 1.27772 113 170 85 255 
0.0299651 -0.0249644 1.2781 113 170 85 255 
0.0300039 -0.0260764 1.27897 113 170 85 255 
0.0293535 -0.025935 1.27935 113 170 85 255 
0.0293929 -0.0270449 1.28022 113 170 85 255 
0.0290879 -0.0275284 1.28084 113 170 85 255 
0.0287832 -0.0280114 1.28146 113 170 85 255 
0.0284788 -0.0284938 1.28208 113 170 85 255 
0.0278303 -0.0283524 1.28246 113 170 85 255 
0.0271819 -0.028211 1.28283 113 170 85 255 
0.0268785 -0.0286931 1.28345 113 170 85 255 
0.0265755 -0.0291746 1.28407 113 170 85 255 
0.0259279 -0.0290333 1.28445 113 170 85 255 
0.0256256 -0.0295143 1.28507 113 170 85 255 
0.0253235 -0.0299949 1.28568 113 170 85 255 
0.0246768 -0.0298537 1.28606 113 170 85 255 
0.0243754 -0.0303338 1.28668 113 170 85 255 
0.0240743 -0.0308134 1.28729 113 170 85 255 
0.0237735 -0.0312926 1.28791 113 170 85 255 
0.023128 -0.0311514 1.28828 113 170 85 255 
0.0224825 -0.0310103 1.28866 113 170 85 255 
0.0218372 -0.0308693 1.28903 113 170 85 255 
0.0218834 -0.0319673 1.28989 113 170 85 255 
0.0208929 -0.031207 1.29002 113 170 85 255 
0.0205942 -0.0316853 1.29063 113 170 85 255 
0.0202958 -0.0321631 1.29125 113 170 85 255 
0.0199977 -0.0326404 1.29186 113 170 85 255 
0.019354 -0.0324995 1.29223 113 170 85 255 
0.0187104 -0.0323587 1.29261 113 170 85 255 
0.0184134 -0.0328354 1.29322 113 170 85 255 
0.0177702 -0.0326947 1.29359 113 170 85 255 
0.0174738 -0.033171 1.2942 113 170 85 255 
0.0164843 -0.0324131 1.29434 113 170 85 255 
0.0165354 -0.0335063 1.29518 113 170 85 255 
0.0155462 -0.0327489 1.29532 113 170 85 255 
0.0149039 -0.0326082 1.29569 113 170 85 255 
0.0146091 -0.0330843 1.2963 113 170 85 255 
0.0139673 -0.0329437 1.29667 113 170 85 255 
0.0133255 -0.0328031 1.29705 113 170 85 255 
0.0130318 -0.0332787 1.29765 113 170 85 255 
0.0127384 -0.0337538 1.29826 113 170 85 255 
0.0117493 -0.0329977 1.2984 113 170 85 255 
0.0114567 -0.0334728 1.299 113 170 85 255 
0.0104673 -0.0327167 1.29914 113 170 85 255 
0.0101754 -0.0331919 1.29975 113 170 85 255 
0.00953484 -0.0330515 1.30012 113 170 85 255 
0.00889446 -0.0329111 1.30049 113 170 85 255 
0.00860345 -0.033386 1.3011 113 170 85 255 
0.00761398 -0.0326305 1.30124 113 170 85 255 
0.00767318 -0.03372 1.30207 113 170 85 255 
0.00598365 -0.0317341 1.30175 113 170 85 255 
0.00569413 -0.0322095 1.30235 113 170 85 255 
0.0050544 -0.0320692 1.30272 113 170 85 255 
0.00441475 -0.0319291 1.30309 113 170 85 255 
0.00342396 -0.0311731 1.30323 113 170 85 255 
0.003838 -0.0328787 1.3043 113 170 85 255 
0.00214474 -0.0308928 1.30398 113 170 85 255 
0.00185735 -0.0313684 1.30458 113 170 85 255 
0.00121825 -0.0312283 1.30495 113 170 85 255 
0.000579283 -0.0310882 1.30532 113 170 85 255 
-0.000412352 -0.0303324 1.30546 113 170 85 255 
-0.00105133 -0.0301923 1.30583 113 170 85 255 
-0.00169023 -0.0300523 1.3062 113 170 85 255 
-0.00232903 -0.0299123 1.30657 113 170 85 255 
-0.0033217 -0.0291559 1.30671 113 170 85 255 
-0.00360625 -0.0296324 1.30731 113 170 85 255 
-0.00424474 -0.0294925 1.30769 113 170 85 255 
-0.0059482 -0.0275019 1.30737 113 170 85 255 
-0.00658717 -0.027362 1.30774 113 170 85 255 
-0.00758213 -0.0266041 1.30788 113 170 85 255 
-0.00822114 -0.0264643 1.30825 113 170 85 255 
-0.00850341 -0.0269424 1.30885 113 170 85 255 
-0.00949878 -0.0261846 1.30899 113 170 85 255 
-0.0104948 -0.0254263 1.30913 113 170 85 255 
-0.0118498 -0.0240479 1.30905 113 170 85 255 
-0.0132069 -0.0226673 1.30896 113 170 85 255 
-0.0127693 -0.024388 1.31002 113 170 85 255 
-0.0141263 -0.0230085 1.30993 113 170 85 255 
-0.0154854 -0.0216269 1.30984 113 170 85 255 
-0.0172078 -0.0196204 1.30953 113 170 85 255 
-0.0178479 -0.0194807 1.3099 113 170 85 255 
-0.01885 -0.0187177 1.31004 113 170 85 255 
-0.020579 -0.0167048 1.30973 113 170 85 255 
-0.0219476 -0.0153136 1.30964 113 170 85 255 
-0.0240494 -0.0126644 1.30909 113 170 85 255 
-0.0265254 -0.00937564 1.30831 113 170 85 255 
-0.0264334 -0.0104973 1.30914 113 170 85 255 
-0.0300257 -0.00529945 1.30766 113 170 85 255 
-0.0269835 -0.0114773 1.31035 113 170 85 255 
-0.0298349 -0.00755382 1.30934 113 170 85 255 
0.0328097 -0.0206336 1.27209 120 180 106 255 
0.032645 -0.0211459 1.27275 120 180 106 255 
0.0324806 -0.0216576 1.27341 120 180 106 255 
0.0318755 -0.0215846 1.27387 120 180 106 255 
0.0321522 -0.0226794 1.27472 120 180 106 255 
0.0315477 -0.0226065 1.27519 120 180 106 255 
0.0318245 -0.0236992 1.27603 120 180 106 255 
0.031661 -0.0242082 1.27669 120 180 106 255 
0.0314975 -0.0247168 1.27734 120 180 106 255 
0.0313343 -0.0252248 1.27799 120 180 106 255 
0.0307314 -0.0251518 1.27846 120 180 106 255 
0.0301286 -0.0250787 1.27892 120 180 106 255 
0.0299662 -0.0255863 1.27957 120 180 106 255 
0.0298039 -0.0260933 1.28022 120 180 106 255 
0.0292019 -0.0260202 1.28068 120 180 106 255 
0.0290401 -0.0265266 1.28133 120 180 106 255 
0.0288785 -0.0270326 1.28198 120 180 106 255 
0.0282773 -0.0269595 1.28244 120 180 106 255 
0.0281162 -0.0274649 1.28309 120 180 106 255 
0.0279552 -0.0279698 1.28374 120 180 106 255 
0.0277944 -0.0284742 1.28438 120 180 106 255 
0.0271942 -0.0284011 1.28484 120 180 106 255 
0.0265941 -0.0283281 1.28531 120 180 106 255 
0.0259942 -0.0282551 1.28577 120 180 106 255 
0.0262743 -0.0293353 1.2866 120 180 106 255 
0.0252349 -0.028686 1.28687 120 180 106 255 
0.0250758 -0.0291892 1.28751 120 180 106 255 
0.0249167 -0.0296921 1.28816 120 180 106 255 
0.0247579 -0.0301943 1.2888 120 180 106 255 
0.0241594 -0.0301213 1.28926 120 180 106 255 
0.023561 -0.0300484 1.28972 120 180 106 255 
0.023403 -0.03055 1.29036 120 180 106 255 
0.022805 -0.0304771 1.29082 120 180 106 255 
0.0226475 -0.0309783 1.29146 120 180 106 255 
0.0216094 -0.0303311 1.29174 120 180 106 255 
0.0218928 -0.031406 1.29256 120 180 106 255 
0.0208551 -0.0307594 1.29283 120 180 106 255 
0.0202579 -0.0306865 1.29329 120 180 106 255 
0.0201017 -0.0311872 1.29393 120 180 106 255 
0.0195049 -0.0311143 1.29439 120 180 106 255 
0.0189082 -0.0310414 1.29484 120 180 106 255 
0.0187529 -0.0315416 1.29548 120 180 106 255 
0.0185977 -0.0320412 1.29612 120 180 106 255 
0.0175604 -0.0313958 1.2964 120 180 106 255 
0.0174058 -0.0318954 1.29703 120 180 106 255 
0.0163683 -0.03125 1.29731 120 180 106 255 
0.0162144 -0.0317496 1.29795 120 180 106 255 
0.0156188 -0.0316768 1.2984 120 180 106 255 
0.0150233 -0.0316039 1.29886 120 180 106 255 
0.0148702 -0.0321031 1.29949 120 180 106 255 
0.0138327 -0.0314583 1.29977 120 180 106 255 
0.0141225 -0.0325288 1.30058 120 180 106 255 
0.0121992 -0.0307403 1.3005 120 180 106 255 
0.0120475 -0.0312399 1.30114 120 180 106 255 
0.0114526 -0.0311671 1.30159 120 180 106 255 
0.0108578 -0.0310944 1.30205 120 180 106 255 
0.00981904 -0.0304493 1.30233 120 180 106 255 
0.0105562 -0.032092 1.30331 120 180 106 255 
0.00862957 -0.0303039 1.30324 120 180 106 255 
0.00847981 -0.0308034 1.30387 120 180 106 255 
0.00788554 -0.0307308 1.30433 120 180 106 255 
0.00729138 -0.030658 1.30478 120 180 106 255 
0.00625187 -0.0300132 1.30506 120 180 106 255 
0.00565771 -0.0299405 1.30552 120 180 106 255 
0.00506363 -0.0298679 1.30597 120 180 106 255 
0.00446965 -0.0297954 1.30643 120 180 106 255 
0.0034291 -0.0291501 1.30671 120 180 106 255 
0.00328202 -0.0296501 1.30734 120 180 106 255 
0.00268834 -0.0295776 1.30779 120 180 106 255 
0.000751639 -0.0277859 1.30772 120 180 106 255 
0.000157528 -0.0277134 1.30818 120 180 106 255 
-0.000885376 -0.0270669 1.30846 120 180 106 255 
-0.00147951 -0.0269945 1.30891 120 180 106 255 
-0.0016242 -0.0274959 1.30954 120 180 106 255 
-0.00266744 -0.0268495 1.30982 120 180 106 255 
-0.00371141 -0.0262027 1.31011 120 180 106 255 
-0.00520723 -0.0249801 1.31021 120 180 106 255 
-0.00670533 -0.0237556 1.31032 120 180 106 255 
-0.00594409 -0.0254107 1.3113 120 180 106 255 
-0.00744187 -0.0241873 1.31141 120 180 106 255 
-0.00894194 -0.0229619 1.31151 120 180 106 255 
-0.0108988 -0.0211565 1.31145 120 180 106 255 
-0.0114939 -0.0210843 1.3119 120 180 106 255 
-0.0125442 -0.0204335 1.31219 120 180 106 255 
-0.0145083 -0.0186225 1.31212 120 180 106 255 
-0.0160189 -0.0173886 1.31223 120 180 106 255 
-0.0184506 -0.0149872 1.31199 120 180 106 255 
-0.0213518 -0.0119923 1.31158 120 180 106 255 
-0.0210261 -0.0130911 1.31239 120 180 106 255 
-0.0253283 -0.00832476 1.31145 120 180 106 255 
-0.0212975 -0.014116 1.31365 120 180 106 255 
-0.0246683 -0.0105326 1.31307 120 180 106 255 
0.0333928 -0.0170154 1.26757 127 191 127 255 
0.0333755 -0.0175376 1.26824 127 191 127 255 
0.0333582 -0.0180592 1.26891 127 191 127 255 
0.0328173 -0.0180489 1.26946 127 191 127 255 
0.0333237 -0.0191009 1.27025 127 191 127 255 
0.0327834 -0.0190905 1.27079 127 191 127 255 
0.0332892 -0.0201405 1.27158 127 191 127 255 
0.033272 -0.0206594 1.27225 127 191 127 255 
0.0332548 -0.0211779 1.27292 127 191 127 255 
0.0332377 -0.0216957 1.27358 127 191 127 255 
0.0326988 -0.0216851 1.27412 127 191 127 255 
0.03216 -0.0216744 1.27466 127 191 127 255 
0.0321434 -0.0221918 1.27533 127 191 127 255 
0.0321268 -0.0227085 1.27599 127 191 127 255 
0.0315886 -0.0226978 1.27653 127 191 127 255 
0.0315724 -0.0232139 1.27719 127 191 127 255 
0.0315561 -0.0237296 1.27785 127 191 127 255 
0.0310186 -0.0237188 1.27839 127 191 127 255 
0.0310026 -0.0242338 1.27905 127 191 127 255 
0.0309867 -0.0247484 1.27971 127 191 127 255 
0.0309708 -0.0252625 1.28037 127 191 127 255 
0.0304342 -0.0252515 1.28091 127 191 127 255 
0.0298977 -0.0252406 1.28145 127 191 127 255 
0.0293613 -0.0252297 1.28198 127 191 127 255 
0.029867 -0.026267 1.28276 127 191 127 255 
0.0288102 -0.0257322 1.28318 127 191 127 255 
0.0287954 -0.026245 1.28383 127 191 127 255 
0.0287806 -0.0267573 1.28449 127 191 127 255 
0.0287658 -0.0272691 1.28514 127 191 127 255 
0.0282307 -0.027258 1.28568 127 191 127 255 
0.0276957 -0.027247 1.28622 127 191 127 255 
0.0276815 -0.0277581 1.28687 127 191 127 255 
0.0271469 -0.027747 1.28741 127 191 127 255 
0.027133 -0.0282576 1.28806 127 191 127 255 
0.0260778 -0.0277249 1.28848 127 191 127 255 
0.0265851 -0.0287565 1.28925 127 191 127 255 
0.0255304 -0.0282243 1.28966 127 191 127 255 
0.0249964 -0.0282131 1.2902 127 191 127 255 
0.0249836 -0.0287232 1.29085 127 191 127 255 
0.0244499 -0.028712 1.29138 127 191 127 255 
0.0239164 -0.0287009 1.29192 127 191 127 255 
0.0239041 -0.0292102 1.29257 127 191 127 255 
0.0238919 -0.029719 1.29322 127 191 127 255 
0.0228378 -0.0291879 1.29364 127 191 127 255 
0.0228262 -0.0296965 1.29428 127 191 127 255 
0.0217719 -0.0291655 1.2947 127 191 127 255 
0.0217608 -0.0296741 1.29535 127 191 127 255 
0.0212282 -0.0296629 1.29588 127 191 127 255 
0.0206958 -0.0296517 1.29642 127 191 127 255 
0.0206852 -0.0301598 1.29706 127 191 127 255 
0.0196311 -0.0296294 1.29748 127 191 127 255 
0.0201428 -0.0306561 1.29824 127 191 127 255 
0.018044 -0.0290874 1.29844 127 191 127 255 
0.0180348 -0.0295958 1.29908 127 191 127 255 
0.0175029 -0.0295845 1.29962 127 191 127 255 
0.016971 -0.0295734 1.30015 127 191 127 255 
0.0159158 -0.0290428 1.30057 127 191 127 255 
0.0169537 -0.0305884 1.30143 127 191 127 255 
0.0148522 -0.0290206 1.30164 127 191 127 255 
0.0148446 -0.0295286 1.30228 127 191 127 255 
0.0143132 -0.0295175 1.30281 127 191 127 255 
0.0137819 -0.0295063 1.30334 127 191 127 255 
0.0127261 -0.028976 1.30376 127 191 127 255 
0.0121948 -0.0289648 1.3043 127 191 127 255 
0.0116636 -0.0289537 1.30483 127 191 127 255 
0.0111325 -0.0289426 1.30536 127 191 127 255 
0.0100757 -0.028412 1.30578 127 191 127 255 
0.0100706 -0.0289203 1.30642 127 191 127 255 
0.00953973 -0.0289093 1.30696 127 191 127 255 
0.00742864 -0.0273388 1.30716 127 191 127 255 
0.00689744 -0.0273278 1.3077 127 191 127 255 
0.00583828 -0.0267962 1.30812 127 191 127 255 
0.00530708 -0.0267853 1.30865 127 191 127 255 
0.00530437 -0.0272948 1.30929 127 191 127 255 
0.00424494 -0.0267633 1.30972 127 191 127 255 
0.00318479 -0.0262315 1.31014 127 191 127 255 
0.00159362 -0.0251776 1.31046 127 191 127 255 
-4.7289e-18 -0.0241221 1.31078 127 191 127 255 
0.00106178 -0.0256776 1.31163 127 191 127 255 
-0.000531297 -0.0246231 1.31195 127 191 127 255 
-0.00212682 -0.0235669 1.31227 127 191 127 255 
-0.00425873 -0.0219849 1.31248 127 191 127 255 
-0.00479066 -0.0219744 1.31302 127 191 127 255 
-0.00585726 -0.0214392 1.31344 127 191 127 255 
-0.00799674 -0.0198524 1.31366 127 191 127 255 
-0.00960348 -0.018789 1.31398 127 191 127 255 
-0.0122911 -0.0166674 1.31409 127 191 127 255 
-0.0155295 -0.014008 1.3141 127 191 127 255 
-0.0149798 -0.015059 1.31485 127 191 127 255 
-0.0198613 -0.0107945 1.31453 127 191 127 255 
-0.0149644 -0.0160978 1.31613 127 191 127 255 
-0.0187522 -0.0129057 1.31603 127 191 127 255 
0.0329613 -0.0133889 1.26304 134 201 148 255 
0.0330918 -0.013905 1.2637 134 201 148 255 
0.0332222 -0.0144203 1.26436 134 201 148 255 
0.0327621 -0.0144647 1.26497 134 201 148 255 
0.0334826 -0.0154497 1.26569 134 201 148 255 
0.0330229 -0.015494 1.2663 134 201 148 255 
0.0337424 -0.0164769 1.26701 134 201 148 255 
0.0338721 -0.0169897 1.26766 134 201 148 255 
0.0340017 -0.0175021 1.26832 134 201 148 255 
0.0341312 -0.0180137 1.26898 134 201 148 255 
0.0336726 -0.0180576 1.26959 134 201 148 255 
0.0332141 -0.0181015 1.2702 134 201 148 255 
0.0333439 -0.0186126 1.27085 134 201 148 255 
0.0334735 -0.0191232 1.27151 134 201 148 255 
0.0330156 -0.0191669 1.27212 134 201 148 255 
0.0331453 -0.0196769 1.27277 134 201 148 255 
0.0332749 -0.0201863 1.27342 134 201 148 255 
0.0328174 -0.0202299 1.27403 134 201 148 255 
0.0329471 -0.0207388 1.27468 134 201 148 255 
0.0330767 -0.0212471 1.27533 134 201 148 255 
0.0332061 -0.021755 1.27599 134 201 148 255 
0.0327494 -0.0217983 1.27659 134 201 148 255 
0.0322928 -0.0218417 1.2772 134 201 148 255 
0.0318363 -0.021885 1.2778 134 201 148 255 
0.0325521 -0.0228555 1.2785 134 201 148 255 
0.03151 -0.0224355 1.27906 134 201 148 255 
0.0316401 -0.022942 1.27971 134 201 148 255 
0.03177 -0.023448 1.28035 134 201 148 255 
0.0318998 -0.0239535 1.281 134 201 148 255 
0.0314443 -0.0239966 1.2816 134 201 148 255 
0.0309889 -0.0240397 1.28221 134 201 148 255 
0.031119 -0.0245444 1.28285 134 201 148 255 
0.0306639 -0.0245874 1.28346 134 201 148 255 
0.030794 -0.0250916 1.2841 134 201 148 255 
0.0297539 -0.0246734 1.28466 134 201 148 255 
0.0304695 -0.0256383 1.28535 134 201 148 255 
0.0294299 -0.0252205 1.28591 134 201 148 255 
0.0289753 -0.0252634 1.28651 134 201 148 255 
0.0291063 -0.025767 1.28715 134 201 148 255 
0.028652 -0.0258098 1.28776 134 201 148 255 
0.0281978 -0.0258526 1.28836 134 201 148 255 
0.0283291 -0.0263555 1.289 134 201 148 255 
0.0284602 -0.0268577 1.28964 134 201 148 255 
0.0274214 -0.026441 1.2902 134 201 148 255 
0.0275529 -0.0269431 1.29084 134 201 148 255 
0.026514 -0.0265265 1.29141 134 201 148 255 
0.026646 -0.0270285 1.29204 134 201 148 255 
0.0261926 -0.0270712 1.29264 134 201 148 255 
0.0257393 -0.0271138 1.29325 134 201 148 255 
0.0258716 -0.0276153 1.29388 134 201 148 255 
0.024833 -0.0271993 1.29445 134 201 148 255 
0.025551 -0.0281587 1.29512 134 201 148 255 
0.0233406 -0.0268256 1.29561 134 201 148 255 
0.0234741 -0.0273272 1.29625 134 201 148 255 
0.0230213 -0.0273697 1.29685 134 201 148 255 
0.0225686 -0.0274124 1.29745 134 201 148 255 
0.0215289 -0.0269963 1.29801 134 201 148 255 
0.0228361 -0.0284138 1.29872 134 201 148 255 
0.0206235 -0.0270817 1.29921 134 201 148 255 
0.0207584 -0.0275828 1.29985 134 201 148 255 
0.020306 -0.0276254 1.30045 134 201 148 255 
0.0198537 -0.027668 1.30104 134 201 148 255 
0.0188137 -0.0272523 1.30161 134 201 148 255 
0.0183614 -0.0272948 1.30221 134 201 148 255 
0.0179092 -0.0273374 1.30281 134 201 148 255 
0.0174571 -0.0273801 1.30341 134 201 148 255 
0.0164162 -0.0269641 1.30397 134 201 148 255 
0.0165531 -0.0274652 1.30461 134 201 148 255 
0.0161013 -0.0275079 1.3052 134 201 148 255 
0.0138799 -0.0261742 1.30571 134 201 148 255 
0.0134278 -0.026217 1.30631 134 201 148 255 
0.0123845 -0.0258002 1.30687 134 201 148 255 
0.0119324 -0.0258431 1.30747 134 201 148 255 
0.0120718 -0.0263451 1.3081 134 201 148 255 
0.0110283 -0.0259285 1.30867 134 201 148 255 
0.00998422 -0.0255117 1.30924 134 201 148 255 
0.00834604 -0.0246344 1.30978 134 201 148 255 
0.00670533 -0.0237556 1.31032 134 201 148 255 
0.00803538 -0.0251804 1.31101 134 201 148 255 
0.00639542 -0.0243026 1.31155 134 201 148 255 
0.00475292 -0.0234234 1.31209 134 201 148 255 
0.00251079 -0.0220805 1.3126 134 201 148 255 
0.00205814 -0.0221237 1.3132 134 201 148 255 
0.00100764 -0.0217042 1.31378 134 201 148 255 
-0.00124224 -0.0203574 1.31429 134 201 148 255 
-0.00289624 -0.0194721 1.31484 134 201 148 255 
-0.00575822 -0.0176538 1.31533 134 201 148 255 
-0.00923526 -0.0153615 1.31579 134 201 148 255 
-0.00847841 -0.0163411 1.31645 134 201 148 255 
-0.0137908 -0.0126337 1.31683 134 201 148 255 
-0.0081766 -0.0173626 1.31771 134 201 148 255 
-0.0122662 -0.014601 1.31815 134 201 148 255 
0.0315283 -0.00986427 1.25863 141 212 170 255 
0.0318027 -0.0103582 1.25927 141 212 170 255 
0.0320768 -0.0108515 1.2599 141 212 170 255 
0.0317113 -0.010941 1.26057 141 212 170 255 
0.0326241 -0.0118367 1.26117 141 212 170 255 
0.0322591 -0.0119261 1.26184 141 212 170 255 
0.0331704 -0.0128199 1.26243 141 212 170 255 
0.0334431 -0.0133107 1.26306 141 212 170 255 
0.0337155 -0.0138011 1.2637 141 212 170 255 
0.0339876 -0.0142908 1.26433 141 212 170 255 
0.0336233 -0.0143797 1.26499 141 212 170 255 
0.0332591 -0.0144685 1.26566 141 212 170 255 
0.0335313 -0.0149577 1.26628 141 212 170 255 
0.0338032 -0.0154463 1.26691 141 212 170 255 
0.0334393 -0.0155349 1.26758 141 212 170 255 
0.0337111 -0.0160229 1.2682 141 212 170 255 
0.0339826 -0.0165105 1.26883 141 212 170 255 
0.0336191 -0.0165989 1.26949 141 212 170 255 
0.0338905 -0.0170858 1.27012 141 212 170 255 
0.0341616 -0.0175723 1.27074 141 212 170 255 
0.0344325 -0.0180583 1.27136 141 212 170 255 
0.0340696 -0.0181464 1.27203 141 212 170 255 
0.0337067 -0.0182345 1.27269 141 212 170 255 
0.033344 -0.0183227 1.27335 141 212 170 255 
0.0342482 -0.0192046 1.27393 141 212 170 255 
0.0332525 -0.018896 1.27463 141 212 170 255 
0.0335234 -0.0193805 1.27525 141 212 170 255 
0.033794 -0.0198647 1.27587 141 212 170 255 
0.0340644 -0.0203483 1.27649 141 212 170 255 
0.0337024 -0.020436 1.27715 141 212 170 255 
0.0333405 -0.0205238 1.27781 141 212 170 255 
0.0336109 -0.0210067 1.27843 141 212 170 255 
0.0332492 -0.0210944 1.27909 141 212 170 255 
0.0335195 -0.0215767 1.27971 141 212 170 255 
0.032526 -0.0212696 1.28041 141 212 170 255 
0.0334282 -0.0221461 1.28098 141 212 170 255 
0.0324352 -0.0218393 1.28168 141 212 170 255 
0.0320739 -0.0219268 1.28234 141 212 170 255 
0.0323446 -0.0224084 1.28296 141 212 170 255 
0.0319835 -0.0224958 1.28361 141 212 170 255 
0.0316225 -0.0225832 1.28427 141 212 170 255 
0.0318933 -0.0230641 1.28489 141 212 170 255 
0.0321637 -0.0235444 1.2855 141 212 170 255 
0.0311717 -0.0232387 1.2862 141 212 170 255 
0.0314425 -0.0237188 1.28681 141 212 170 255 
0.0304505 -0.0234132 1.28751 141 212 170 255 
0.0307215 -0.0238931 1.28812 141 212 170 255 
0.0303612 -0.0239803 1.28878 141 212 170 255 
0.0300008 -0.0240674 1.28944 141 212 170 255 
0.030272 -0.0245469 1.29005 141 212 170 255 
0.0292804 -0.0242418 1.29075 141 212 170 255 
0.0301829 -0.0251127 1.29131 141 212 170 255 
0.027928 -0.0240236 1.29211 141 212 170 255 
0.0282002 -0.024503 1.29272 141 212 170 255 
0.0278402 -0.02459 1.29337 141 212 170 255 
0.0274804 -0.0246771 1.29403 141 212 170 255 
0.0264879 -0.024372 1.29473 141 212 170 255 
0.0280246 -0.0256341 1.29524 141 212 170 255 
0.0257682 -0.0245462 1.29604 141 212 170 255 
0.0260414 -0.025025 1.29665 141 212 170 255 
0.0256818 -0.025112 1.2973 141 212 170 255 
0.0253223 -0.0251989 1.29796 141 212 170 255 
0.0243296 -0.0248943 1.29866 141 212 170 255 
0.0239701 -0.0249812 1.29932 141 212 170 255 
0.0236107 -0.0250682 1.29997 141 212 170 255 
0.0232513 -0.0251552 1.30063 141 212 170 255 
0.0222578 -0.0248504 1.30133 141 212 170 255 
0.0225327 -0.025329 1.30194 141 212 170 255 
0.0221736 -0.0254161 1.30259 141 212 170 255 
0.0199095 -0.0243275 1.3034 141 212 170 255 
0.0195501 -0.0244146 1.30405 141 212 170 255 
0.0185545 -0.0241093 1.30476 141 212 170 255 
0.0181952 -0.0241965 1.30542 141 212 170 255 
0.0184724 -0.0246758 1.30602 141 212 170 255 
0.0174767 -0.0243706 1.30673 141 212 170 255 
0.0164803 -0.0240653 1.30743 141 212 170 255 
0.0148449 -0.0233669 1.3082 141 212 170 255 
0.0132069 -0.0226673 1.30896 141 212 170 255 
0.0147648 -0.0239342 1.30945 141 212 170 255 
0.0131278 -0.0232356 1.31022 141 212 170 255 
0.0114882 -0.0225357 1.31098 141 212 170 255 
0.00920402 -0.0214402 1.3118 141 212 170 255 
0.0088444 -0.0215278 1.31246 141 212 170 255 
0.00784192 -0.0212206 1.31317 141 212 170 255 
0.00555001 -0.0201219 1.314 141 212 170 255 
0.003899 -0.0194173 1.31477 141 212 170 255 
0.000949638 -0.0179166 1.31565 141 212 170 255 
-0.00266043 -0.0160116 1.3166 141 212 170 255 
-0.0017194 -0.0168984 1.31715 141 212 170 255 
-0.00730124 -0.0137865 1.31827 141 212 170 255 
-0.00114036 -0.0178718 1.31835 141 212 170 255 
-0.00540762 -0.0155669 1.31936 141 212 170 255 
0.0291373 -0.00654867 1.25449 148 223 191 255 
0.0295473 -0.00700522 1.25508 148 223 191 255 
0.0299567 -0.00746115 1.25566 148 223 191 255 
0.0296971 -0.00758478 1.25637 148 223 191 255 
0.0307744 -0.00837172 1.25684 148 223 191 255 
0.030515 -0.00849524 1.25755 148 223 191 255 
0.0315905 -0.00928049 1.25801 148 223 191 255 
0.0319978 -0.00973411 1.25859 148 223 191 255 
0.0324048 -0.0101873 1.25918 148 223 191 255 
0.0328113 -0.0106399 1.25976 148 223 191 255 
0.0325524 -0.0107629 1.26047 148 223 191 255 
0.0322935 -0.0108858 1.26118 148 223 191 255 
0.0326998 -0.0113379 1.26176 148 223 191 255 
0.0331057 -0.0117895 1.26234 148 223 191 255 
0.032847 -0.0119121 1.26305 148 223 191 255 
0.0332526 -0.0123631 1.26363 148 223 191 255 
0.0336578 -0.0128137 1.26421 148 223 191 255 
0.0333993 -0.0129361 1.26491 148 223 191 255 
0.0338042 -0.0133861 1.26549 148 223 191 255 
0.0342086 -0.0138356 1.26607 148 223 191 255 
0.0346126 -0.0142847 1.26665 148 223 191 255 
0.0343545 -0.0144068 1.26735 148 223 191 255 
0.0340965 -0.0145288 1.26806 148 223 191 255 
0.0338385 -0.0146509 1.26876 148 223 191 255 
0.0349037 -0.0154252 1.26921 148 223 191 255 
0.0339846 -0.0152212 1.27004 148 223 191 255 
0.0343881 -0.0156689 1.27061 148 223 191 255 
0.0347913 -0.0161162 1.27119 148 223 191 255 
0.035194 -0.016563 1.27176 148 223 191 255 
0.0349365 -0.0166847 1.27246 148 223 191 255 
0.0346791 -0.0168063 1.27317 148 223 191 255 
0.0350815 -0.0172524 1.27374 148 223 191 255 
0.0348242 -0.0173739 1.27444 148 223 191 255 
0.0352264 -0.0178195 1.27501 148 223 191 255 
0.0343097 -0.0176168 1.27584 148 223 191 255 
0.0353712 -0.0183859 1.27628 148 223 191 255 
0.034455 -0.0181835 1.27711 148 223 191 255 
0.034198 -0.0183048 1.27781 148 223 191 255 
0.0346002 -0.0187496 1.27838 148 223 191 255 
0.0343433 -0.0188708 1.27908 148 223 191 255 
0.0340864 -0.018992 1.27978 148 223 191 255 
0.0344884 -0.0194361 1.28035 148 223 191 255 
0.0348899 -0.0198797 1.28092 148 223 191 255 
0.033975 -0.0196782 1.28175 148 223 191 255 
0.0343767 -0.0201216 1.28232 148 223 191 255 
0.0334617 -0.0199201 1.28315 148 223 191 255 
0.0338636 -0.0203633 1.28371 148 223 191 255 
0.0336072 -0.0204842 1.28441 148 223 191 255 
0.0333508 -0.020605 1.28511 148 223 191 255 
0.0337525 -0.0210477 1.28567 148 223 191 255 
0.0328381 -0.0208467 1.28651 148 223 191 255 
0.0338977 -0.0216104 1.28693 148 223 191 255 
0.0316668 -0.0207665 1.28804 148 223 191 255 
0.0320694 -0.021209 1.2886 148 223 191 255 
0.0318133 -0.0213297 1.2893 148 223 191 255 
0.0315572 -0.0214505 1.28999 148 223 191 255 
0.0306421 -0.0212496 1.29083 148 223 191 255 
0.0323616 -0.0223337 1.29112 148 223 191 255 
0.03013 -0.0214912 1.29222 148 223 191 255 
0.0305332 -0.021933 1.29278 148 223 191 255 
0.0302773 -0.0220537 1.29348 148 223 191 255 
0.0300214 -0.0221742 1.29418 148 223 191 255 
0.0291063 -0.0219738 1.29501 148 223 191 255 
0.0288505 -0.0220944 1.29571 148 223 191 255 
0.0285947 -0.022215 1.29641 148 223 191 255 
0.028339 -0.0223356 1.2971 148 223 191 255 
0.0274232 -0.0221352 1.29794 148 223 191 255 
0.0278277 -0.0225767 1.2985 148 223 191 255 
0.0275721 -0.0226973 1.29919 148 223 191 255 
0.0253341 -0.0218548 1.30031 148 223 191 255 
0.0250784 -0.0219755 1.30101 148 223 191 255 
0.0241607 -0.0217747 1.30184 148 223 191 255 
0.0239051 -0.0218955 1.30254 148 223 191 255 
0.0243117 -0.0223375 1.30309 148 223 191 255 
0.0233939 -0.0221369 1.30393 148 223 191 255 
0.0224756 -0.0219363 1.30477 148 223 191 255 
0.0208926 -0.0214137 1.30575 148 223 191 255 
0.0193072 -0.0208903 1.30674 148 223 191 255 
0.0210457 -0.0219771 1.30701 148 223 191 255 
0.0194613 -0.0214544 1.30799 148 223 191 255 
0.0178745 -0.0209309 1.30897 148 223 191 255 
0.0156176 -0.0200836 1.31011 148 223 191 255 
0.0153619 -0.0202049 1.31081 148 223 191 255 
0.0144379 -0.0200029 1.31165 148 223 191 255 
0.0121736 -0.0191533 1.31279 148 223 191 255 
0.0105758 -0.0186262 1.31378 148 223 191 255 
0.00762864 -0.0174478 1.31507 148 223 191 255 
0.00399523 -0.0159387 1.31651 148 223 191 255 
0.00509186 -0.0167141 1.31691 148 223 191 255 
-0.000589868 -0.0142178 1.31881 148 223 191 255 
0.00593052 -0.01761 1.31802 148 223 191 255 
0.00161531 -0.0157742 1.31962 148 223 191 255 
0.025861 -0.00354281 1.25073 155 233 212 255 
0.026394 -0.00394781 1.25125 155 233 212 255 
0.0269264 -0.00435227 1.25178 155 233 212 255 
0.0267805 -0.00449807 1.25252 155 233 212 255 
0.0279897 -0.00516004 1.25282 155 233 212 255 
0.0278438 -0.00530571 1.25356 155 233 212 255 
0.0290507 -0.00596622 1.25387 155 233 212 255 
0.0295804 -0.00636863 1.25439 155 233 212 255 
0.0301095 -0.0067707 1.25491 155 233 212 255 
0.0306381 -0.0071722 1.25543 155 233 212 255 
0.0304924 -0.00731729 1.25616 155 233 212 255 
0.0303466 -0.00746226 1.2569 155 233 212 255 
0.0308748 -0.00786329 1.25742 155 233 212 255 
0.0314024 -0.00826387 1.25793 155 233 212 255 
0.0312567 -0.00840861 1.25867 155 233 212 255 
0.0317837 -0.00880862 1.25918 155 233 212 255 
0.0323103 -0.00920828 1.2597 155 233 212 255 
0.0321647 -0.00935277 1.26043 155 233 212 255 
0.0326907 -0.00975186 1.26095 155 233 212 255 
0.0332162 -0.0101506 1.26146 155 233 212 255 
0.0337411 -0.0105489 1.26198 155 233 212 255 
0.0335957 -0.010693 1.26271 155 233 212 255 
0.0334502 -0.0108372 1.26344 155 233 212 255 
0.0333049 -0.0109813 1.26417 155 233 212 255 
0.0344986 -0.0116321 1.26447 155 233 212 255 
0.033684 -0.0115229 1.26542 155 233 212 255 
0.034208 -0.0119199 1.26593 155 233 212 255 
0.0347314 -0.0123166 1.26644 155 233 212 255 
0.0352543 -0.0127128 1.26695 155 233 212 255 
0.0351091 -0.0128564 1.26768 155 233 212 255 
0.0349639 -0.0130001 1.26841 155 233 212 255 
0.0354863 -0.0133956 1.26892 155 233 212 255 
0.0353412 -0.0135391 1.26965 155 233 212 255 
0.035863 -0.0139342 1.27015 155 233 212 255 
0.035051 -0.013826 1.2711 155 233 212 255 
0.0362394 -0.0144721 1.27139 155 233 212 255 
0.0354279 -0.0143642 1.27234 155 233 212 255 
0.0352829 -0.0145074 1.27307 155 233 212 255 
0.0358044 -0.0149018 1.27357 155 233 212 255 
0.0356595 -0.0150449 1.2743 155 233 212 255 
0.0355146 -0.015188 1.27503 155 233 212 255 
0.0360356 -0.0155817 1.27553 155 233 212 255 
0.036556 -0.0159749 1.27604 155 233 212 255 
0.0357459 -0.0158677 1.27699 155 233 212 255 
0.0362664 -0.0162606 1.27749 155 233 212 255 
0.0354563 -0.0161535 1.27844 155 233 212 255 
0.0359768 -0.0165463 1.27894 155 233 212 255 
0.0358321 -0.0166891 1.27967 155 233 212 255 
0.0356874 -0.0168318 1.28039 155 233 212 255 
0.0362075 -0.0172241 1.28089 155 233 212 255 
0.0353981 -0.0171174 1.28184 155 233 212 255 
0.0365825 -0.0177584 1.28212 155 233 212 255 
0.0344434 -0.0171533 1.28352 155 233 212 255 
0.0349642 -0.0175454 1.28402 155 233 212 255 
0.0348196 -0.017688 1.28474 155 233 212 255 
0.0346751 -0.0178306 1.28547 155 233 212 255 
0.0338652 -0.0177241 1.28642 155 233 212 255 
0.0357152 -0.0186131 1.28647 155 233 212 255 
0.0335763 -0.0180094 1.28787 155 233 212 255 
0.0340972 -0.0184007 1.28837 155 233 212 255 
0.0339528 -0.0185432 1.28909 155 233 212 255 
0.0338084 -0.0186857 1.28982 155 233 212 255 
0.0329986 -0.0185796 1.29077 155 233 212 255 
0.0328542 -0.018722 1.29149 155 233 212 255 
0.0327099 -0.0188645 1.29222 155 233 212 255 
0.0325657 -0.019007 1.29294 155 233 212 255 
0.0317553 -0.0189008 1.2939 155 233 212 255 
0.0322771 -0.0192917 1.29439 155 233 212 255 
0.0321329 -0.0194342 1.29511 155 233 212 255 
0.0299889 -0.0188312 1.29653 155 233 212 255 
0.0298447 -0.0189737 1.29725 155 233 212 255 
0.0290328 -0.0188675 1.29821 155 233 212 255 
0.0288887 -0.0190102 1.29893 155 233 212 255 
0.0294123 -0.0194012 1.29942 155 233 212 255 
0.0286004 -0.0192952 1.30038 155 233 212 255 
0.027788 -0.0191892 1.30134 155 233 212 255 
0.0263056 -0.0188341 1.30253 155 233 212 255 
0.0248209 -0.0184785 1.30372 155 233 212 255 
0.026687 -0.0193683 1.30374 155 233 212 255 
0.0252035 -0.0190133 1.30494 155 233 212 255 
0.0237177 -0.0186578 1.30613 155 233 212 255 
0.0215566 -0.0180519 1.30757 155 233 212 255 
0.0214127 -0.018195 1.30829 155 233 212 255 
0.0205952 -0.0180882 1.30926 155 233 212 255 
0.0184273 -0.0174808 1.3107 155 233 212 255 
0.0169312 -0.0171229 1.3119 155 233 212 255 
0.0140759 -0.0162616 1.31359 155 233 212 255 
0.0105295 -0.0151449 1.31552 155 233 212 255 
0.0117484 -0.0157937 1.31576 155 233 212 255 
0.00613943 -0.0139145 1.31843 155 233 212 255 
0.0128212 -0.0165851 1.31674 155 233 212 255 
0.00858915 -0.0152165 1.31892 155 233 212 255 
0.0217989 -0.000938011 1.24748 162 244 233 255 
0.0224389 -0.00127891 1.24792 162 244 233 255 
0.023078 -0.00161934 1.24836 162 244 233 255 
0.0230502 -0.00177463 1.24911 162 244 233 255 
0.0243544 -0.00229924 1.24925 162 244 233 255 
0.0243266 -0.0024544 1.25 162 244 233 255 
0.0256282 -0.00297781 1.25013 162 244 233 255 
0.0262641 -0.00331652 1.25057 162 244 233 255 
0.0268994 -0.00365494 1.25101 162 244 233 255 
0.0275339 -0.00399289 1.25145 162 244 233 255 
0.0275059 -0.00414747 1.2522 162 244 233 255 
0.0274777 -0.00430194 1.25295 162 244 233 255 
0.0281116 -0.00463947 1.25339 162 244 233 255 
0.0287449 -0.0049766 1.25382 162 244 233 255 
0.0287167 -0.00513084 1.25457 162 244 233 255 
0.0293492 -0.00546748 1.25501 162 244 233 255 
0.029981 -0.00580383 1.25545 162 244 233 255 
0.0299528 -0.00595782 1.25619 162 244 233 255 
0.0305839 -0.00629367 1.25663 162 244 233 255 
0.0312145 -0.00662923 1.25706 162 244 233 255 
0.0318444 -0.00696441 1.2575 162 244 233 255 
0.031816 -0.00711804 1.25824 162 244 233 255 
0.0317876 -0.00727167 1.25898 162 244 233 255 
0.0317593 -0.00742528 1.25973 162 244 233 255 
0.0330453 -0.0079406 1.25985 162 244 233 255 
0.03236 -0.00791332 1.2609 162 244 233 255 
0.0329884 -0.00824736 1.26134 162 244 233 255 
0.0336163 -0.00858111 1.26177 162 244 233 255 
0.0342434 -0.00891447 1.2622 162 244 233 255 
0.0342149 -0.00906761 1.26294 162 244 233 255 
0.0341864 -0.00922073 1.26368 162 244 233 255 
0.0348128 -0.00955348 1.26411 162 244 233 255 
0.0347843 -0.00970647 1.26486 162 244 233 255 
0.03541 -0.0100388 1.26529 162 244 233 255 
0.0347272 -0.0100123 1.26634 162 244 233 255 
0.0360065 -0.0105236 1.26645 162 244 233 255 
0.0353243 -0.0104973 1.26751 162 244 233 255 
0.0352958 -0.01065 1.26825 162 244 233 255 
0.0359208 -0.0109817 1.26867 162 244 233 255 
0.0358922 -0.0111343 1.26941 162 244 233 255 
0.0358636 -0.0112869 1.27015 162 244 233 255 
