ply
format ascii 1.0
element vertex 976
property float x
property float y
property float z
property uchar red
property uchar green
property uchar blue
property uchar alpha
end_header
0.0667806 0.0253352 -0.00700587 148 223 191 255 
0.0659853 0.0253216 -0.00744068 148 223 191 255 
0.0651909 0.0253081 -0.007875 148 223 191 255 
0.0642604 0.0256395 -0.00900806 148 223 191 255 
0.0637411 0.0249361 -0.00804302 148 223 191 255 
0.0628127 0.0252675 -0.00917518 148 223 191 255 
0.0621573 0.0249095 -0.00890961 148 223 191 255 
0.0615021 0.0245514 -0.00864399 148 223 191 255 
0.0607119 0.0245384 -0.00907671 148 223 191 255 
0.060192 0.0238356 -0.00811302 148 223 191 255 
0.0594026 0.0238229 -0.0085459 148 223 191 255 
0.0586141 0.0238102 -0.00897833 148 223 191 255 
0.0578264 0.0237975 -0.00941031 148 223 191 255 
0.0573061 0.0230953 -0.00844795 148 223 191 255 
0.0565193 0.023083 -0.00888009 148 223 191 255 
0.0561314 0.0220353 -0.00721977 148 223 191 255 
0.0556102 0.021332 -0.00625603 148 223 191 255 
0.0546916 0.0216664 -0.00738771 148 223 191 255 
0.0541702 0.0209635 -0.00642463 148 223 191 255 
0.053122 0.0216433 -0.00825243 148 223 191 255 
0.0524696 0.0212866 -0.00798767 148 223 191 255 
0.0520789 0.0202384 -0.00632821 148 223 191 255 
0.0510345 0.0209188 -0.00815484 148 223 191 255 
0.0507733 0.0195248 -0.00579875 148 223 191 255 
0.0498606 0.0198605 -0.00692923 148 223 191 255 
0.0489498 0.0201954 -0.00805744 148 223 191 255 
0.0484277 0.0194937 -0.00709698 148 223 191 255 
0.0477763 0.0191375 -0.00683262 148 223 191 255 
0.047125 0.0187815 -0.00656831 148 223 191 255 
0.0462176 0.0191173 -0.00769602 148 223 191 255 
0.0458228 0.0180696 -0.00603986 148 223 191 255 
0.0447894 0.0187516 -0.00786305 148 223 191 255 
0.0442665 0.0180504 -0.00690388 148 223 191 255 
0.0434897 0.0180408 -0.00733516 148 223 191 255 
0.0427136 0.0180313 -0.00776605 148 223 191 255 
0.0420643 0.0176761 -0.00750226 148 223 191 255 
0.0412895 0.0176667 -0.00793275 148 223 191 255 
0.0405156 0.0176574 -0.00836278 148 223 191 255 
0.0394684 0.0162563 -0.00644769 148 223 191 255 
0.0300043 0.0168411 -0.0129635 148 223 191 255 
0.0292417 0.0168322 -0.0133879 148 223 191 255 
0.0284798 0.0168234 -0.0138118 148 223 191 255 
0.0277188 0.0168146 -0.0142353 148 223 191 255 
0.0270768 0.0164628 -0.0139734 148 223 191 255 
0.0263169 0.0164542 -0.0143966 148 223 191 255 
0.0254405 0.0167881 -0.0155031 148 223 191 255 
0.0247997 0.0164369 -0.0152415 148 223 191 255 
0.0240422 0.0164283 -0.0156633 148 223 191 255 
0.0232855 0.0164197 -0.0160847 148 223 191 255 
0.0225297 0.0164111 -0.0165056 148 223 191 255 
0.0218902 0.0160605 -0.0162444 148 223 191 255 
0.0212508 0.01571 -0.0159832 148 223 191 255 
0.0204966 0.0157018 -0.0164039 148 223 191 255 
0.0197431 0.0156936 -0.0168241 148 223 191 255 
0.0189904 0.0156854 -0.017244 148 223 191 255 
0.0183524 0.0153354 -0.0169831 148 223 191 255 
0.0177144 0.0149856 -0.0167223 148 223 191 255 
0.0169633 0.0149778 -0.0171418 148 223 191 255 
0.0163259 0.0146282 -0.0168812 148 223 191 255 
0.0154634 0.0149622 -0.0179797 148 223 191 255 
0.0148268 0.0146129 -0.0177192 148 223 191 255 
0.0140784 0.0146053 -0.0181376 148 223 191 255 
0.0134423 0.0142563 -0.0178773 148 223 191 255 
0.0128063 0.0139074 -0.017617 148 223 191 255 
0.0121703 0.0135585 -0.0173567 148 223 191 255 
0.0114239 0.0135515 -0.017775 148 223 191 255 
0.0107885 0.0132029 -0.0175149 148 223 191 255 
0.0100433 0.013196 -0.0179328 148 223 191 255 
0.00929888 0.0131891 -0.0183502 148 223 191 255 
0.00866435 0.0128409 -0.0180904 148 223 191 255 
0.00792112 0.0128342 -0.0185075 148 223 191 255 
0.00728708 0.0124863 -0.0182478 148 223 191 255 
0.00654497 0.0124798 -0.0186646 148 223 191 255 
0.0059115 0.012132 -0.018405 148 223 191 255 
0.00527805 0.0117844 -0.0181455 148 223 191 255 
0.00453752 0.0117783 -0.018562 148 223 191 255 
0.00379778 0.0117721 -0.0189781 148 223 191 255 
0.00316522 0.0114249 -0.0187189 148 223 191 255 
0.00242666 0.011419 -0.0191346 148 223 191 255 
0.00179459 0.011072 -0.0188756 148 223 191 255 
0.00105713 0.0110663 -0.019291 148 223 191 255 
0.000425639 0.0107195 -0.019032 148 223 191 255 
-0.000310636 0.0107139 -0.0194471 148 223 191 255 
-0.0010462 0.0107084 -0.0198618 148 223 191 255 
-0.00167681 0.0103621 -0.0196031 148 223 191 255 
-0.0024112 0.0103567 -0.0200174 148 223 191 255 
-0.00304132 0.0100106 -0.0197588 148 223 191 255 
-0.00367134 0.0096646 -0.0195003 148 223 191 255 
-0.00460982 0.0103406 -0.0212579 148 223 191 255 
-0.00523876 0.00999507 -0.0209996 148 223 191 255 
-0.0058676 0.00964959 -0.0207413 148 223 191 255 
-0.00659815 0.00964456 -0.0211542 148 223 191 255 
-0.00722651 0.00929932 -0.0208961 148 223 191 255 
-0.00795596 0.00929453 -0.0213086 148 223 191 255 
-0.00858383 0.00894953 -0.0210506 148 223 191 255 
-0.00931211 0.00894489 -0.0214628 148 223 191 255 
-0.0100397 0.0089403 -0.0218745 148 223 191 255 
-0.0107665 0.00893568 -0.0222859 148 223 191 255 
-0.0114925 0.00893104 -0.0226968 148 223 191 255 
-0.0121187 0.00858681 -0.0224392 148 223 191 255 
-0.0128436 0.00858239 -0.0228498 148 223 191 255 
-0.0135679 0.00857803 -0.02326 148 223 191 255 
-0.0142912 0.00857356 -0.0236697 148 223 191 255 
-0.0149162 0.00822991 -0.0234125 148 223 191 255 
-0.0156385 0.00822566 -0.0238219 148 223 191 255 
-0.0163601 0.00822146 -0.0242309 148 223 191 255 
-0.0170809 0.00821722 -0.0246395 148 223 191 255 
-0.0176081 0.00753506 -0.0237171 148 223 191 255 
-0.0183281 0.00753117 -0.0241258 148 223 191 255 
-0.0189516 0.00718825 -0.023869 148 223 191 255 
-0.019575 0.00684532 -0.0236123 148 223 191 255 
-0.0202935 0.00684181 -0.0240208 148 223 191 255 
-0.0210113 0.00683828 -0.0244289 148 223 191 255 
-0.0217284 0.00683478 -0.0248367 148 223 191 255 
-0.0223506 0.00649251 -0.0245803 148 223 191 255 
-0.0229725 0.00615023 -0.0243239 148 223 191 255 
-0.0235007 0.0054687 -0.0234032 148 223 191 255 
-0.0243097 0.00580508 -0.0244752 148 223 191 255 
-0.0250241 0.0058021 -0.0248823 148 223 191 255 
-0.0256452 0.0054603 -0.0246262 148 223 191 255 
-0.0263586 0.00545753 -0.0250331 148 223 191 255 
-0.0269791 0.00511597 -0.0247771 148 223 191 255 
-0.0275076 0.00443532 -0.0238582 148 223 191 255 
-0.0282199 0.00443305 -0.0242654 148 223 191 255 
-0.0289314 0.00443083 -0.0246721 148 223 191 255 
-0.0293692 0.00341088 -0.0230907 148 223 191 255 
-0.030171 0.00374845 -0.0241607 148 223 191 255 
-0.0307907 0.00340741 -0.0239051 148 223 191 255 
-0.0315003 0.00340565 -0.0243117 148 223 191 255 
-0.0320296 0.00272537 -0.0233939 148 223 191 255 
-0.0327386 0.00272402 -0.0238008 148 223 191 255 
-0.0333575 0.00238327 -0.0235453 148 223 191 255 
-0.0338873 0.00170284 -0.0226276 148 223 191 255 
-0.0345064 0.00136213 -0.0223722 148 223 191 255 
-0.0351252 0.00102142 -0.0221169 148 223 191 255 
-0.0356558 0.000340413 -0.0211985 148 223 191 255 
-0.0363628 0.000340274 -0.0216064 148 223 191 255 
-0.0368936 -0.00034086 -0.020688 148 223 191 255 
-0.0375999 -0.000340666 -0.0210961 148 223 191 255 
-0.0382182 -0.000681105 -0.0208409 148 223 191 255 
-0.0388365 -0.0010214 -0.0205859 148 223 191 255 
-0.039368 -0.0017028 -0.0196674 148 223 191 255 
-0.0401591 -0.00136098 -0.0207388 148 223 191 255 
-0.0406907 -0.00204203 -0.019821 148 223 191 255 
-0.0410508 -0.00340729 -0.0175737 148 223 191 255 
-0.0418408 -0.00306371 -0.0186476 148 223 191 255 
-0.0426292 -0.00272083 -0.0197195 148 223 191 255 
-0.0429914 -0.00408596 -0.0174736 148 223 191 255 
-0.0438637 -0.00340034 -0.0192102 148 223 191 255 
-0.0476475 -0.00509564 -0.018346 148 223 191 255 
-0.0483463 -0.0050931 -0.0187541 148 223 191 255 
-0.0489621 -0.00543215 -0.0184999 148 223 191 255 
-0.0496599 -0.00542935 -0.0189078 148 223 191 255 
-0.0502752 -0.00576824 -0.0186537 148 223 191 255 
-0.0508904 -0.006107 -0.0183996 148 223 191 255 
-0.0515056 -0.00644568 -0.0181457 148 223 191 255 
-0.0522823 -0.00610079 -0.0192144 148 223 191 255 
-0.0528967 -0.00643915 -0.0189606 148 223 191 255 
-0.053511 -0.00677744 -0.0187069 148 223 191 255 
-0.0539649 -0.00780003 -0.0171301 148 223 191 255 
-0.0548189 -0.0071121 -0.0188602 148 223 191 255 
-0.0553532 -0.00779204 -0.0179459 148 223 191 255 
-0.0558878 -0.00847248 -0.0170309 148 223 191 255 
-0.0565807 -0.00846822 -0.0174387 148 223 191 255 
-0.0571944 -0.00880617 -0.0171852 148 223 191 255 
-0.0576509 -0.00982972 -0.0156081 148 223 191 255 
-0.0583431 -0.00982475 -0.0160167 148 223 191 255 
-0.0589567 -0.0101627 -0.0157633 148 223 191 255 
-0.0593369 -0.0115313 -0.0135215 148 223 191 255 
-0.0600287 -0.0115254 -0.0139314 148 223 191 255 
-0.0605652 -0.0122075 -0.0130145 148 223 191 255 
-0.0611021 -0.01289 -0.012097 148 223 191 255 
-0.061793 -0.0128835 -0.0125077 148 223 191 255 
-0.0623302 -0.0135662 -0.0115902 148 223 191 255 
-0.0627913 -0.0145948 -0.0100067 148 223 191 255 
-0.0634057 -0.0149329 -0.00975332 148 223 191 255 
-0.0642475 -0.0142348 -0.0114947 148 223 191 255 
-0.0620233 -0.0275431 0.0137223 148 223 191 255 
-0.0626466 -0.027885 0.0139773 148 223 191 255 
-0.0633471 -0.0278707 0.013547 148 223 191 255 
-0.0641237 -0.0275006 0.012433 148 223 191 255 
-0.064899 -0.0271312 0.0113211 148 223 191 255 
-0.0655966 -0.0271172 0.0108932 148 223 191 255 
-0.0718583 -0.0138128 -0.0166477 148 223 191 255 
-0.0726065 -0.0266255 0.0059618 148 223 191 255 
-0.0795156 -0.0127154 -0.0230421 148 223 191 255 
0.0730606 0.031998 -0.00374893 155 233 212 255 
0.0723522 0.0319809 -0.00430867 155 233 212 255 
0.0716283 0.0323047 -0.00557441 155 233 212 255 
0.0647153 0.0290711 -0.00480086 155 233 212 255 
0.0639361 0.031099 -0.00957766 155 233 212 255 
0.0619002 0.0293502 -0.00773051 155 233 212 255 
0.0612132 0.028994 -0.00758283 155 233 212 255 
0.0605036 0.0293191 -0.00883915 155 233 212 255 
0.0598065 0.0293036 -0.00939257 155 233 212 255 
0.0591422 0.0282669 -0.00784225 155 233 212 255 
0.0584352 0.0285924 -0.00909737 155 233 212 255 
0.0577497 0.0282369 -0.00894985 155 233 212 255 
0.0570546 0.028222 -0.00950277 155 233 212 255 
0.0563792 0.0275261 -0.00865481 155 233 212 255 
0.0556941 0.0271708 -0.00850734 155 233 212 255 
0.0550091 0.0268156 -0.00835991 155 233 212 255 
0.0543071 0.0271421 -0.00961279 155 233 212 255 
0.0536312 0.0264465 -0.00876559 155 233 212 255 
0.0529629 0.0254087 -0.00721661 155 233 212 255 
0.0522781 0.0250536 -0.00706927 155 233 212 255 
0.0515787 0.0253819 -0.00832353 155 233 212 255 
0.0509089 0.0243436 -0.0067747 155 233 212 255 
0.0502245 0.0239887 -0.0066274 155 233 212 255 
0.0495337 0.023976 -0.00718127 155 233 212 255 
0.0488498 0.0236213 -0.00703404 155 233 212 255 
0.048166 0.0232668 -0.00688691 155 233 212 255 
0.0474712 0.0235964 -0.00814009 155 233 212 255 
0.0467988 0.0225577 -0.00659257 155 233 212 255 
0.0461105 0.0225458 -0.00714598 155 233 212 255 
0.0454274 0.0221916 -0.00699892 155 233 212 255 
0.044749 0.0214946 -0.00615131 155 233 212 255 
0.0440619 0.0214833 -0.0067048 155 233 212 255 
0.0433792 0.0211292 -0.0065578 155 233 212 255 
0.0426898 0.0214606 -0.00781004 155 233 212 255 
0.042008 0.0211069 -0.00766309 155 233 212 255 
0.0413292 0.0204106 -0.00681689 155 233 212 255 
0.0406474 0.0200568 -0.00666996 155 233 212 255 
0.0399634 0.0200463 -0.0072224 155 233 212 255 
0.039282 0.0196929 -0.0070756 155 233 212 255 
0.0386009 0.0193395 -0.00692877 155 233 212 255 
0.0379184 0.0193294 -0.00748069 155 233 212 255 
0.0372378 0.0189762 -0.00733392 155 233 212 255 
0.0365565 0.0189662 -0.00788523 155 233 212 255 
0.0358759 0.0189562 -0.00843601 155 233 212 255 
0.0351962 0.0186036 -0.00828934 155 233 212 255 
0.0345169 0.0189363 -0.00953584 155 233 212 255 
0.0338385 0.0189264 -0.0100849 155 233 212 255 
0.0318022 0.0175275 -0.00894954 155 233 212 255 
0.0304513 0.0178514 -0.0107417 155 233 212 255 
0.0297762 0.0178421 -0.0112891 155 233 212 255 
0.0291044 0.0181744 -0.0125286 155 233 212 255 
0.0284283 0.0178233 -0.0123821 155 233 212 255 
0.0277584 0.0181554 -0.0136193 155 233 212 255 
0.0270831 0.0178047 -0.0134729 155 233 212 255 
0.0264152 0.0181364 -0.0147077 155 233 212 255 
0.0257407 0.0177861 -0.0145615 155 233 212 255 
0.0250707 0.0177767 -0.0151048 155 233 212 255 
0.0243967 0.0174267 -0.0149586 155 233 212 255 
0.0237228 0.0170767 -0.0148124 155 233 212 255 
0.0230542 0.0170678 -0.0153553 155 233 212 255 
0.0223809 0.016718 -0.0152092 155 233 212 255 
0.0217134 0.0167092 -0.0157515 155 233 212 255 
0.0210407 0.0163597 -0.0156054 155 233 212 255 
0.020368 0.0160102 -0.0154593 155 233 212 255 
0.0197086 0.0163426 -0.0166885 155 233 212 255 
0.0190298 0.0156527 -0.0158552 155 233 212 255 
0.0183721 0.0159852 -0.0170832 155 233 212 255 
0.0176934 0.0152955 -0.0162505 155 233 212 255 
0.0170373 0.0156281 -0.0174774 155 233 212 255 
0.0163585 0.0149388 -0.0166454 155 233 212 255 
0.0156958 0.014931 -0.0171857 155 233 212 255 
0.0150252 0.0145825 -0.0170398 155 233 212 255 
0.0143636 0.0145749 -0.0175795 155 233 212 255 
0.0136936 0.0142266 -0.0174337 155 233 212 255 
0.0130426 0.0145597 -0.0186572 155 233 212 255 
0.0123538 0.0135303 -0.0171422 155 233 212 255 
0.0116841 0.0131823 -0.0169965 155 233 212 255 
0.0110455 0.0138568 -0.0189039 155 233 212 255 
0.0103557 0.0128275 -0.0173901 155 233 212 255 
0.00969752 0.0128209 -0.0179288 155 233 212 255 
0.00903997 0.0128142 -0.018467 155 233 212 255 
0.00837177 0.0124668 -0.0183214 155 233 212 255 
0.00770359 0.0121194 -0.0181759 155 233 212 255 
0.0070356 0.0117721 -0.0180303 155 233 212 255 
0.00636763 0.0114249 -0.0178849 155 233 212 255 
0.00571249 0.011419 -0.0184226 155 233 212 255 
0.00504503 0.011072 -0.0182772 155 233 212 255 
0.00439092 0.0110663 -0.0188144 155 233 212 255 
0.00372405 0.0107195 -0.018669 155 233 212 255 
0.00307104 0.0107139 -0.0192056 155 233 212 255 
0.00240467 0.0103674 -0.0190603 155 233 212 255 
0.0017527 0.0103621 -0.0195964 155 233 212 255 
0.00110142 0.0103567 -0.020132 155 233 212 255 
0.000421162 0.00966955 -0.0193059 155 233 212 255 
-0.000244487 0.00932343 -0.0191607 155 233 212 255 
-0.000894554 0.00931859 -0.0196963 155 233 212 255 
-0.00155969 0.00897272 -0.0195512 155 233 212 255 
-0.00220866 0.00896803 -0.0200863 155 233 212 255 
-0.00285701 0.0089634 -0.0206209 155 233 212 255 
-0.00352117 0.00861787 -0.0204758 155 233 212 255 
-0.00416848 0.00861347 -0.0210099 155 233 212 255 
-0.00483214 0.00826819 -0.0208648 155 233 212 255 
-0.00547836 0.00826394 -0.0213984 155 233 212 255 
-0.00615913 0.00757785 -0.0205748 155 233 212 255 
-0.00680455 0.00757395 -0.0211084 155 233 212 255 
-0.00744928 0.00757002 -0.0216415 155 233 212 255 
-0.00809339 0.00756615 -0.022174 155 233 212 255 
-0.0087368 0.00756225 -0.022706 155 233 212 255 
-0.00939854 0.00721788 -0.0225611 155 233 212 255 
-0.0100602 0.00687358 -0.0224163 155 233 212 255 
-0.0107216 0.00652927 -0.0222714 155 233 212 255 
-0.0113434 0.00686647 -0.0234786 155 233 212 255 
-0.0120041 0.00652259 -0.0233339 155 233 212 255 
-0.012624 0.00685941 -0.0245389 155 233 212 255 
-0.0133046 0.00617556 -0.0237196 155 233 212 255 
-0.0139647 0.00583199 -0.023575 155 233 212 255 
-0.0146247 0.00548841 -0.0234303 155 233 212 255 
-0.0152416 0.00582597 -0.0246342 155 233 212 255 
-0.0159009 0.00548281 -0.0244897 155 233 212 255 
-0.0165379 0.00547993 -0.0250185 155 233 212 255 
-0.0172189 0.00479656 -0.0242005 155 233 212 255 
-0.0178552 0.00479409 -0.0247295 155 233 212 255 
-0.0185137 0.00445131 -0.024585 155 233 212 255 
-0.0191489 0.00444899 -0.0251134 155 233 212 255 
-0.0198303 0.00376582 -0.0242961 155 233 212 255 
-0.0204647 0.00376383 -0.0248246 155 233 212 255 
-0.0210985 0.00376189 -0.0253525 155 233 212 255 
-0.0217559 0.00341959 -0.0252081 155 233 212 255 
-0.0223887 0.00341786 -0.0257355 155 233 212 255 
-0.0230703 0.00273519 -0.0249195 155 233 212 255 
-0.0237023 0.0027338 -0.025447 155 233 212 255 
-0.0243842 0.002051 -0.024631 155 233 212 255 
-0.0250154 0.00204994 -0.0251585 155 233 212 255 
-0.0256977 0.00136701 -0.0243426 155 233 212 255 
-0.0263542 0.00102512 -0.0241984 155 233 212 255 
-0.0269843 0.00102458 -0.024726 155 233 212 255 
-0.027667 0.000341478 -0.0239101 155 233 212 255 
-0.0282694 0.000682586 -0.025109 155 233 212 255 
-0.0289249 0.000341099 -0.0249649 155 233 212 255 
-0.0296629 -0.00102563 -0.0228055 155 233 212 255 
-0.0303191 -0.00136727 -0.0226615 155 233 212 255 
-0.0309752 -0.00170885 -0.0225175 155 233 212 255 
-0.0315743 -0.00136589 -0.0237177 155 233 212 255 
-0.0322583 -0.00204934 -0.022902 155 233 212 255 
-0.0329426 -0.00273338 -0.0220856 155 233 212 255 
-0.0335399 -0.00238947 -0.0232859 155 233 212 255 
-0.0342832 -0.00375925 -0.0211249 155 233 212 255 
-0.0349092 -0.00375729 -0.021654 155 233 212 255 
-0.0356547 -0.00512963 -0.0194895 155 233 212 255 
-0.0363411 -0.00581558 -0.018671 155 233 212 255 
-0.0369359 -0.00546836 -0.019876 155 233 212 255 
-0.0377153 -0.00718879 -0.0170323 155 233 212 255 
-0.0384973 -0.00891478 -0.0141794 155 233 212 255 
-0.0391548 -0.00925689 -0.0140356 155 233 212 255 
-0.0398122 -0.00959893 -0.0138918 155 233 212 255 
-0.040405 -0.00924735 -0.015104 155 233 212 255 
-0.0410616 -0.00958905 -0.0149603 155 233 212 255 
-0.0416853 -0.00958416 -0.0154936 155 233 212 255 
-0.0423745 -0.0102722 -0.014673 155 233 212 255 
-0.0429642 -0.00992046 -0.0158829 155 233 212 255 
-0.0436533 -0.0106083 -0.0150629 155 233 212 255 
-0.0442415 -0.0102564 -0.0162717 155 233 212 255 
-0.0448966 -0.0105974 -0.0161282 155 233 212 255 
-0.0455172 -0.010592 -0.01666 155 233 212 255 
-0.0461718 -0.0109327 -0.0165166 155 233 212 255 
-0.0468263 -0.0112734 -0.0163731 155 233 212 255 
-0.0479401 -0.0161441 -0.00740519 155 233 212 255 
-0.0494072 -0.0122888 -0.0164744 155 233 212 255 
-0.0501333 -0.013323 -0.014981 155 233 212 255 
-0.0507144 -0.0129692 -0.0161878 155 233 212 255 
-0.0513678 -0.0133094 -0.0160446 155 233 212 255 
-0.0532991 -0.0256229 0.00736896 155 233 212 255 
-0.0526743 -0.0139895 -0.0157581 155 233 212 255 
-0.0532523 -0.0136356 -0.0169628 155 233 212 255 
-0.0539047 -0.0139753 -0.0168196 155 233 212 255 
-0.054519 -0.0139681 -0.0173495 155 233 212 255 
-0.0552093 -0.0146544 -0.0165334 155 233 212 255 
-0.0558614 -0.014994 -0.0163903 155 233 212 255 
-0.0564356 -0.0146395 -0.0175928 155 233 212 255 
-0.057087 -0.0149786 -0.0174498 155 233 212 255 
-0.057817 -0.0160122 -0.0159612 155 233 212 255 
-0.0585085 -0.0166992 -0.0151446 155 233 212 255 
-0.0591202 -0.0166907 -0.0156753 155 233 212 255 
-0.0597716 -0.0170299 -0.0155323 155 233 212 255 
-0.0605042 -0.0180655 -0.0140415 155 233 212 255 
-0.0610742 -0.0177081 -0.0152465 155 233 212 255 
-0.0618487 -0.0190929 -0.0130809 155 233 212 255 
-0.0625005 -0.0194323 -0.012938 155 233 212 255 
-0.0631523 -0.0197714 -0.0127952 155 233 212 255 
-0.0637619 -0.0197613 -0.0133273 155 233 212 255 
-0.0643708 -0.0197513 -0.0138587 155 233 212 255 
-0.0649367 -0.0193926 -0.0150628 155 233 212 255 
-0.0655016 -0.0190346 -0.0162647 155 233 212 255 
-0.0661511 -0.0193728 -0.016122 155 233 212 255 
-0.0765947 -0.0164471 -0.0308334 155 233 212 255 
0.0679191 0.0358818 -0.00599557 162 244 233 255 
0.0673275 0.0358628 -0.00665473 162 244 233 255 
0.066844 0.0361795 -0.00799807 162 244 233 255 
0.0661461 0.0358251 -0.00797112 162 244 233 255 
0.0654484 0.0354708 -0.00794417 162 244 233 255 
0.0648591 0.035452 -0.00860121 162 244 233 255 
0.0642704 0.0354334 -0.00925762 162 244 233 255 
0.0635735 0.0350795 -0.00923061 162 244 233 255 
0.0630948 0.0353962 -0.0105684 162 244 233 255 
0.062508 0.0353776 -0.0112226 162 244 233 255 
0.0587302 0.0309351 -0.00496117 162 244 233 255 
0.0582551 0.0312564 -0.00630589 162 244 233 255 
0.057781 0.0315771 -0.00764796 162 244 233 255 
0.0570847 0.0312235 -0.00762106 162 244 233 255 
0.0566121 0.0315439 -0.00896051 162 244 233 255 
0.0558046 0.0308538 -0.00825073 162 244 233 255 
0.0553336 0.0311743 -0.00958874 162 244 233 255 
0.0544134 0.0301473 -0.00819688 162 244 233 255 
0.053718 0.0297941 -0.00816995 162 244 233 255 
0.0530228 0.029441 -0.00814303 162 244 233 255 
0.0522139 0.0287501 -0.00743296 162 244 233 255 
0.0515186 0.028397 -0.00740613 162 244 233 255 
0.050709 0.0277056 -0.00669561 162 244 233 255 
0.0502428 0.0280292 -0.00803543 162 244 233 255 
0.0495482 0.0276764 -0.00800852 162 244 233 255 
0.0486233 0.0266464 -0.00661518 162 244 233 255 
0.0480438 0.0266324 -0.00727188 162 244 233 255 
0.0472333 0.0259407 -0.00656168 162 244 233 255 
0.0465386 0.0255879 -0.00653489 162 244 233 255 
0.0458439 0.0252352 -0.00650811 162 244 233 255 
0.0452661 0.0252219 -0.00716464 162 244 233 255 
0.0445719 0.0248694 -0.00713783 162 244 233 255 
0.0437607 0.0241773 -0.0064278 162 244 233 255 
0.0430665 0.0238249 -0.00640109 162 244 233 255 
0.0426081 0.0241519 -0.0077399 162 244 233 255 
0.0417967 0.0234601 -0.00703063 162 244 233 255 
0.0411032 0.0231079 -0.00700384 162 244 233 255 
0.0405284 0.0230958 -0.00765941 162 244 233 255 
0.0398355 0.0227439 -0.00763258 162 244 233 255 
0.038904 0.0217113 -0.00624066 162 244 233 255 
0.0384499 0.0220402 -0.00757891 162 244 233 255 
0.0377573 0.0216885 -0.00755214 162 244 233 255 
0.0370648 0.0213368 -0.00752532 162 244 233 255 
0.0363724 0.0209851 -0.0074985 162 244 233 255 
0.0358007 0.0209742 -0.00815319 162 244 233 255 
0.0351089 0.0206228 -0.00812634 162 244 233 255 
0.0344172 0.0202714 -0.00809945 162 244 233 255 
0.0338469 0.0202609 -0.00875335 162 244 233 255 
0.0331557 0.0199098 -0.0087265 162 244 233 255 
0.0325865 0.0198994 -0.0093796 162 244 233 255 
0.0320179 0.019889 -0.0100321 162 244 233 255 
0.0314499 0.0198785 -0.0106838 162 244 233 255 
0.0306375 0.0191878 -0.00997817 162 244 233 255 
0.0299475 0.0188373 -0.0099512 162 244 233 255 
0.0295037 0.0191677 -0.0112808 162 244 233 255 
0.0289377 0.0191577 -0.0119311 162 244 233 255 
0.0283722 0.0191476 -0.0125807 162 244 233 255 
0.0276838 0.0187979 -0.0125537 162 244 233 255 
0.0271194 0.0187881 -0.0132025 162 244 233 255 
0.0265555 0.0187783 -0.0138508 162 244 233 255 
0.0258681 0.0184289 -0.0138236 162 244 233 255 
0.0253053 0.0184194 -0.0144711 162 244 233 255 
0.024743 0.0184098 -0.015118 162 244 233 255 
0.0240565 0.0180608 -0.0150907 162 244 233 255 
0.0234952 0.0180514 -0.0157368 162 244 233 255 
0.0228093 0.0177027 -0.0157095 162 244 233 255 
0.0221234 0.0173541 -0.0156822 162 244 233 255 
0.0213117 0.0166657 -0.0149816 162 244 233 255 
0.0208781 0.0169968 -0.0163003 162 244 233 255 
0.0200665 0.0163086 -0.0156003 162 244 233 255 
0.0196345 0.0166397 -0.0169175 162 244 233 255 
0.0188229 0.015952 -0.0162183 162 244 233 255 
0.0182652 0.0159437 -0.0168628 162 244 233 255 
0.0177081 0.0159354 -0.0175067 162 244 233 255 
0.0170241 0.0155876 -0.0174792 162 244 233 255 
0.0163401 0.0152399 -0.0174518 162 244 233 255 
0.0156563 0.0148922 -0.0174244 162 244 233 255 
0.015101 0.0148845 -0.0180675 162 244 233 255 
0.014289 0.0141971 -0.0173697 162 244 233 255 
0.0136056 0.0138496 -0.0173423 162 244 233 255 
0.0129223 0.0135022 -0.0173149 162 244 233 255 
0.0122391 0.0131548 -0.0172875 162 244 233 255 
0.0116857 0.013148 -0.0179304 162 244 233 255 
0.011003 0.0128009 -0.017903 162 244 233 255 
0.0105808 0.0131344 -0.0192142 162 244 233 255 
0.00963797 0.0121069 -0.0178482 162 244 233 255 
0.00908645 0.0121006 -0.0184903 162 244 233 255 
0.00840454 0.0117538 -0.0184628 162 244 233 255 
0.00772268 0.0114072 -0.0184354 162 244 233 255 
0.00704099 0.0110605 -0.018408 162 244 233 255 
0.0063594 0.0107139 -0.0183805 162 244 233 255 
0.00567792 0.0103674 -0.0183531 162 244 233 255 
0.00512895 0.0103621 -0.0189944 162 244 233 255 
0.00458057 0.0103567 -0.0196349 162 244 233 255 
0.00376719 0.00966955 -0.0189394 162 244 233 255 
0.00308644 0.00932343 -0.018912 162 244 233 255 
0.00253926 0.00931859 -0.0195524 162 244 233 255 
0.00199262 0.0093138 -0.0201922 162 244 233 255 
0.00117895 0.00862684 -0.0194975 162 244 233 255 
0.000633168 0.00862233 -0.0201371 162 244 233 255 
8.79074e-05 0.00861787 -0.0207761 162 244 233 255 
-0.000860617 0.00758965 -0.0194151 162 244 233 255 
-0.0014052 0.00758566 -0.0200546 162 244 233 255 
-0.00208444 0.00724025 -0.0200271 162 244 233 255 
-0.00276357 0.0068949 -0.0199997 162 244 233 255 
-0.00344253 0.00654955 -0.0199721 162 244 233 255 
-0.0038495 0.00688771 -0.0212766 162 244 233 255 
-0.00452772 0.00654279 -0.021249 162 244 233 255 
-0.00493327 0.00688066 -0.0225509 162 244 233 255 
-0.00561064 0.00653601 -0.0225232 162 244 233 255 
-0.00656157 0.00550822 -0.0211663 162 244 233 255 
-0.0069651 0.00584699 -0.022468 162 244 233 255 
-0.00777951 0.00516089 -0.0217761 162 244 233 255 
-0.00831908 0.00515818 -0.0224127 162 244 233 255 
-0.00885813 0.00515552 -0.0230487 162 244 233 255 
-0.00953456 0.0048114 -0.023021 162 244 233 255 
-0.0102109 0.00446734 -0.0229934 162 244 233 255 
-0.0108871 0.00412336 -0.0229657 162 244 233 255 
-0.0114244 0.00412119 -0.0236009 162 244 233 255 
-0.0121001 0.00377745 -0.0235732 162 244 233 255 
-0.0126365 0.0037755 -0.0242077 162 244 233 255 
-0.0133116 0.00343192 -0.02418 162 244 233 255 
-0.0139866 0.00308842 -0.0241522 162 244 233 255 
-0.0145217 0.00308686 -0.024786 162 244 233 255 
-0.0153364 0.00240163 -0.0240968 162 244 233 255 
-0.0158707 0.00240041 -0.0247305 162 244 233 255 
-0.016545 0.00205729 -0.0247028 162 244 233 255 
-0.0173602 0.00137189 -0.0240137 162 244 233 255 
-0.0177521 0.00171333 -0.025308 162 244 233 255 
-0.0182845 0.00171246 -0.0259403 162 244 233 255 
-0.0190994 0.00102771 -0.0252524 162 244 233 255 
-0.0197729 0.000685037 -0.0252247 162 244 233 255 
-0.0204462 0.000342364 -0.0251969 162 244 233 255 
-0.0211194 -2.40513e-07 -0.0251692 162 244 233 255 
-0.0217926 -0.000342774 -0.0251414 162 244 233 255 
-0.0226087 -0.00102823 -0.0244533 162 244 233 255 
-0.0231384 -0.0010277 -0.0250859 162 244 233 255 
-0.0239548 -0.0017133 -0.0243978 162 244 233 255 
-0.0244839 -0.00171235 -0.0250304 162 244 233 255 
-0.0250123 -0.00171152 -0.0256623 162 244 233 255 
-0.026118 -0.00308418 -0.0236541 162 244 233 255 
-0.0265011 -0.00273899 -0.0249472 162 244 233 255 
-0.0271734 -0.00308104 -0.0249195 162 244 233 255 
-0.0282817 -0.00445563 -0.02291 162 244 233 255 
-0.0285174 -0.003765 -0.0248641 162 244 233 255 
-0.0294811 -0.00479544 -0.023516 162 244 233 255 
-0.0304463 -0.00582751 -0.0221657 162 244 233 255 
-0.031119 -0.00616975 -0.0221382 162 244 233 255 
-0.0317917 -0.00651193 -0.0221107 162 244 233 255 
-0.0334991 -0.00928071 -0.017437 162 244 233 255 
-0.0352165 -0.0120658 -0.0127359 162 244 233 255 
-0.035743 -0.0120596 -0.0133784 162 244 233 255 
-0.0361192 -0.0117039 -0.0146885 162 244 233 255 
-0.0372446 -0.0130966 -0.0126553 162 244 233 255 
-0.0376195 -0.0127398 -0.0139664 162 244 233 255 
-0.038596 -0.0137835 -0.0126016 162 244 233 255 
-0.0389696 -0.0134262 -0.0139126 162 244 233 255 
-0.0399471 -0.0144702 -0.012548 162 244 233 255 
-0.0403193 -0.0141123 -0.0138587 162 244 233 255 
-0.0412976 -0.0151566 -0.0124943 162 244 233 255 
-0.0419727 -0.0154997 -0.0124675 162 244 233 255 
-0.0423429 -0.0151409 -0.013778 162 244 233 255 
-0.0433225 -0.0161858 -0.0124139 162 244 233 255 
-0.0439973 -0.0165287 -0.0123871 162 244 233 255 
-0.0443655 -0.0161691 -0.0136973 162 244 233 255 
-0.0451929 -0.016863 -0.0130022 162 244 233 255 
-0.0461748 -0.0179093 -0.0116374 162 244 233 255 
-0.046387 -0.0171967 -0.0136166 162 244 233 255 
-0.0581271 -0.0342712 0.0137616 162 244 233 255 
-0.0588111 -0.0346179 0.0137865 162 244 233 255 
-0.0593327 -0.0345998 0.0131209 162 244 233 255 
-0.0600161 -0.0349462 0.0131459 162 244 233 255 
-0.0602121 -0.0341994 0.0111031 162 244 233 255 
-0.0548202 -0.0209386 -0.0146008 162 244 233 255 
-0.0554918 -0.02128 -0.0145739 162 244 233 255 
-0.0560055 -0.0212691 -0.0152127 162 244 233 255 
-0.0565187 -0.0212582 -0.0158507 162 244 233 255 
-0.0573476 -0.0219514 -0.0151588 162 244 233 255 
-0.0580184 -0.0222925 -0.0151319 162 244 233 255 
-0.0586891 -0.0226335 -0.0151049 162 244 233 255 
-0.0593597 -0.0229744 -0.015078 162 244 233 255 
-0.0600302 -0.0233154 -0.0150511 162 244 233 255 
-0.0605411 -0.0233034 -0.015689 162 244 233 255 
-0.0613708 -0.023997 -0.0149973 162 244 233 255 
-0.0623615 -0.0250448 -0.0136393 162 244 233 255 
-0.0628715 -0.0250319 -0.0142782 162 244 233 255 
-0.0633809 -0.025019 -0.0149166 162 244 233 255 
-0.0640507 -0.0253596 -0.0148897 162 244 233 255 
-0.0642374 -0.0246404 -0.0168546 162 244 233 255 
-0.0649062 -0.0249805 -0.0168276 162 244 233 255 
-0.070558 -0.017476 -0.0417458 162 244 233 255 
-0.0725368 -0.0174409 -0.0441892 162 244 233 255 
0.0673696 0.0391039 -0.00511456 170 0 0 255 
0.0669052 0.0390835 -0.00585513 170 0 0 255 
0.0664414 0.039063 -0.00659484 170 0 0 255 
0.065978 0.0390426 -0.00733384 170 0 0 255 
0.0655151 0.0390222 -0.00807206 170 0 0 255 
0.0643807 0.0380067 -0.00687404 170 0 0 255 
0.0639185 0.0379869 -0.0076127 170 0 0 255 
0.0634568 0.037967 -0.00835057 170 0 0 255 
0.062771 0.0376154 -0.00844334 170 0 0 255 
0.0620852 0.0372639 -0.00853612 170 0 0 255 
0.0616248 0.0372445 -0.00927306 170 0 0 255 
0.0609396 0.0368932 -0.00936571 170 0 0 255 
0.0607054 0.0372056 -0.0107444 170 0 0 255 
0.060021 0.0368547 -0.0108369 170 0 0 255 
0.059788 0.0371668 -0.0122128 170 0 0 255 
0.0593299 0.0371475 -0.0129459 170 0 0 255 
0.0556946 0.0324674 -0.00466477 170 0 0 255 
0.0552364 0.0324505 -0.00540551 170 0 0 255 
0.0550072 0.0327679 -0.00679152 170 0 0 255 
0.05455 0.0327508 -0.00753002 170 0 0 255 
0.0543217 0.0330675 -0.00891199 170 0 0 255 
0.0534085 0.0323826 -0.00836054 170 0 0 255 
0.0524946 0.0316973 -0.00780867 170 0 0 255 
0.0518097 0.0313462 -0.00790149 170 0 0 255 
0.0511249 0.0309952 -0.00799431 170 0 0 255 
0.05021 0.0303093 -0.00744225 170 0 0 255 
0.0492945 0.0296228 -0.00688976 170 0 0 255 
0.0488405 0.0296073 -0.00762801 170 0 0 255 
0.0481558 0.0292565 -0.00772093 170 0 0 255 
0.0472399 0.0285699 -0.00716869 170 0 0 255 
0.0463233 0.0278827 -0.00661603 170 0 0 255 
0.0458708 0.0278682 -0.00735449 170 0 0 255 
0.0449538 0.0271809 -0.00680206 170 0 0 255 
0.043803 0.026156 -0.00560282 170 0 0 255 
0.0435848 0.0264794 -0.00698798 170 0 0 255 
0.0426669 0.0257916 -0.00643535 170 0 0 255 
0.0422163 0.0257781 -0.0071739 170 0 0 255 
0.0412981 0.0250901 -0.00662132 170 0 0 255 
0.0408483 0.025077 -0.00735964 170 0 0 255 
0.0399297 0.0243889 -0.00680736 170 0 0 255 
0.0392458 0.0240384 -0.00690025 170 0 0 255 
0.0380908 0.0230113 -0.00570145 170 0 0 255 
0.0374065 0.0226606 -0.00579457 170 0 0 255 
0.0371945 0.0229873 -0.00717908 170 0 0 255 
0.0362747 0.0222984 -0.00662665 170 0 0 255 
0.0358275 0.0222868 -0.00736484 170 0 0 255 
0.0353809 0.0222751 -0.00810224 170 0 0 255 
0.0344611 0.0215866 -0.00755059 170 0 0 255 
0.0340152 0.0215753 -0.00828776 170 0 0 255 
0.0333326 0.0212254 -0.00838043 170 0 0 255 
0.03265 0.0208757 -0.00847319 170 0 0 255 
0.0322054 0.0208648 -0.00920935 170 0 0 255 
0.0315233 0.0205153 -0.00930198 170 0 0 255 
0.0310796 0.0205045 -0.0100372 170 0 0 255 
0.0306363 0.0204939 -0.0107718 170 0 0 255 
0.029478 0.019467 -0.00957954 170 0 0 255 
0.0290354 0.0194569 -0.0103145 170 0 0 255 
0.0288321 0.0197854 -0.0116901 170 0 0 255 
0.0281516 0.0194366 -0.0117823 170 0 0 255 
0.0277104 0.0194265 -0.0125149 170 0 0 255 
0.0270304 0.019078 -0.012607 170 0 0 255 
0.0263506 0.0187295 -0.0126991 170 0 0 255 
0.0261502 0.0190581 -0.0140699 170 0 0 255 
0.0254711 0.01871 -0.0141618 170 0 0 255 
0.0247921 0.0183619 -0.0142535 170 0 0 255 
0.0241133 0.0180139 -0.0143454 170 0 0 255 
0.023675 0.0180046 -0.0150753 170 0 0 255 
0.0232372 0.0179952 -0.0158046 170 0 0 255 
0.0223185 0.0173091 -0.0152586 170 0 0 255 
0.0218814 0.0173001 -0.0159876 170 0 0 255 
0.0214448 0.0172911 -0.0167159 170 0 0 255 
0.0205261 0.0166052 -0.0161707 170 0 0 255 
0.0196068 0.0159188 -0.0156251 170 0 0 255 
0.0194132 0.0162494 -0.0169901 170 0 0 255 
0.0184941 0.0155633 -0.0164451 170 0 0 255 
0.0178169 0.0152162 -0.0165366 170 0 0 255 
0.0173827 0.0152083 -0.0172641 170 0 0 255 
0.016706 0.0148613 -0.0173554 170 0 0 255 
0.0160295 0.0145145 -0.0174468 170 0 0 255 
0.0153531 0.0141677 -0.0175381 170 0 0 255 
0.014433 0.0134812 -0.0169935 170 0 0 255 
0.0144883 0.014153 -0.0189903 170 0 0 255 
0.0130803 0.0127877 -0.0171763 170 0 0 255 
0.0126488 0.012781 -0.017903 170 0 0 255 
0.011973 0.0124345 -0.0179942 170 0 0 255 
0.0112973 0.0120881 -0.0180854 170 0 0 255 
0.0106217 0.0117417 -0.0181766 170 0 0 255 
0.0101918 0.0117356 -0.0189024 170 0 0 255 
0.00951666 0.0113895 -0.0189934 170 0 0 255 
0.00884173 0.0110434 -0.0190845 170 0 0 255 
0.00792055 0.0103567 -0.0185412 170 0 0 255 
0.00749218 0.0103513 -0.0192665 170 0 0 255 
0.00657066 0.0096646 -0.0187234 170 0 0 255 
0.00614308 0.00965957 -0.0194484 170 0 0 255 
0.00546868 0.0093138 -0.0195394 170 0 0 255 
0.00479445 0.00896803 -0.0196303 170 0 0 255 
0.00412032 0.00862233 -0.0197212 170 0 0 255 
0.00344626 0.00827678 -0.0198122 170 0 0 255 
0.00252385 0.00758965 -0.0192696 170 0 0 255 
0.00184982 0.00724398 -0.0193605 170 0 0 255 
0.0014249 0.00724025 -0.0200848 170 0 0 255 
0.00075132 0.0068949 -0.0201757 170 0 0 255 
7.78931e-05 0.00654955 -0.0202665 170 0 0 255 
-0.000595426 0.00620428 -0.0203573 170 0 0 255 
-0.00126864 0.00585907 -0.0204481 170 0 0 255 
-0.00194174 0.00551394 -0.0205389 170 0 0 255 
-0.00261473 0.00516888 -0.0206297 170 0 0 255 
-0.00328757 0.00482381 -0.0207204 170 0 0 255 
-0.00396035 0.00447889 -0.0208112 170 0 0 255 
-0.00463297 0.00413397 -0.0209019 170 0 0 255 
-0.005054 0.00413185 -0.0216245 170 0 0 255 
-0.00547458 0.00412971 -0.0223463 170 0 0 255 
-0.00639815 0.00344256 -0.0218057 170 0 0 255 
-0.00681795 0.00344077 -0.0225273 170 0 0 255 
-0.00748948 0.0030964 -0.0226177 170 0 0 255 
-0.00816089 0.00275211 -0.0227082 170 0 0 255 
-0.00883221 0.00240789 -0.0227986 170 0 0 255 
-0.00975653 0.00172043 -0.0222584 170 0 0 255 
-0.0101744 0.0017195 -0.0229794 170 0 0 255 
-0.0103386 0.00206153 -0.0243291 170 0 0 255 
-0.0112624 0.00137471 -0.02379 170 0 0 255 
-0.0121869 0.000687458 -0.0232505 170 0 0 255 
-0.0128575 0.000343585 -0.0233409 170 0 0 255 
-0.0130191 0.000686778 -0.0246898 170 0 0 255 
-0.0141984 -0.000344025 -0.0235215 170 0 0 255 
-0.0146135 -0.000343871 -0.0242411 170 0 0 255 
-0.0150283 -0.000343673 -0.0249601 170 0 0 255 
-0.0162088 -0.00137502 -0.0237923 170 0 0 255 
-0.0166229 -0.00137428 -0.0245117 170 0 0 255 
-0.0172923 -0.0017177 -0.0246018 170 0 0 255 
-0.0179618 -0.00206099 -0.0246919 170 0 0 255 
-0.0188877 -0.00274885 -0.0241532 170 0 0 255 
-0.0193003 -0.00274742 -0.0248721 170 0 0 255 
-0.0199693 -0.00309056 -0.0249622 170 0 0 255 
-0.0206383 -0.00343364 -0.0250522 170 0 0 255 
-0.0213071 -0.00377664 -0.0251423 170 0 0 255 
-0.0217181 -0.00377473 -0.0258601 170 0 0 255 
-0.0223864 -0.00411749 -0.02595 170 0 0 255 
-0.023313 -0.00480531 -0.0254123 170 0 0 255 
-0.0244992 -0.00583947 -0.0242456 170 0 0 255 
-0.0249087 -0.00583647 -0.0249643 170 0 0 255 
-0.0263564 -0.0072184 -0.0231674 170 0 0 255 
-0.0262454 -0.00652199 -0.0251443 170 0 0 255 
-0.0276945 -0.00790447 -0.023348 170 0 0 255 
-0.0281025 -0.00790044 -0.0240675 170 0 0 255 
-0.0292933 -0.00893783 -0.0228988 170 0 0 255 
-0.0352405 -0.0162952 -0.0102826 170 0 0 255 
-0.0348506 -0.0152274 -0.0129332 170 0 0 255 
-0.0355235 -0.0155721 -0.0130251 170 0 0 255 
-0.036729 -0.0166232 -0.0118391 170 0 0 255 
-0.0382037 -0.0180303 -0.0100105 170 0 0 255 
-0.0380753 -0.0173128 -0.012023 170 0 0 255 
-0.0395514 -0.0187205 -0.010195 170 0 0 255 
-0.0415696 -0.0208439 -0.00707664 170 0 0 255 
-0.0427845 -0.0219032 -0.00588134 170 0 0 255 
-0.0426494 -0.0211784 -0.00790493 170 0 0 255 
-0.043594 -0.0218804 -0.00735454 170 0 0 255 
-0.043458 -0.0211564 -0.00937405 170 0 0 255 
-0.0441317 -0.0215014 -0.00946634 170 0 0 255 
-0.0445349 -0.0214902 -0.0101996 170 0 0 255 
-0.056496 -0.0366966 0.0164483 170 0 0 255 
-0.0571802 -0.0370462 0.016352 170 0 0 255 
-0.0575836 -0.0370266 0.0155924 170 0 0 255 
-0.0579866 -0.037007 0.0148335 170 0 0 255 
-0.0583891 -0.0369874 0.0140754 170 0 0 255 
-0.059353 -0.0377053 0.0146417 170 0 0 255 
-0.0597547 -0.0376854 0.0138838 170 0 0 255 
-0.060719 -0.0384033 0.0144499 170 0 0 255 
-0.0614018 -0.0387522 0.014354 170 0 0 255 
-0.0615205 -0.0383627 0.0129354 170 0 0 255 
-0.0613574 -0.0376059 0.0108604 170 0 0 255 
-0.0623202 -0.0383222 0.0114242 170 0 0 255 
-0.0559627 -0.0273424 -0.0117646 170 0 0 255 
-0.056359 -0.0273282 -0.0124952 170 0 0 255 
-0.0567549 -0.0273141 -0.0132251 170 0 0 255 
-0.0571504 -0.0272999 -0.0139542 170 0 0 255 
-0.0578205 -0.027643 -0.0140458 170 0 0 255 
-0.0582152 -0.0276287 -0.0147741 170 0 0 255 
-0.0588847 -0.0279717 -0.0148655 170 0 0 255 
-0.0592787 -0.0279572 -0.015593 170 0 0 255 
-0.0602235 -0.0286574 -0.0150484 170 0 0 255 
-0.0608926 -0.0290002 -0.0151398 170 0 0 255 
-0.0618382 -0.0297009 -0.014595 170 0 0 255 
-0.0625075 -0.0300436 -0.0146865 170 0 0 255 
-0.0626227 -0.0296702 -0.0160494 170 0 0 255 
-0.0632912 -0.0300126 -0.0161407 170 0 0 255 
-0.0636824 -0.0299971 -0.0168667 170 0 0 255 
-0.0640732 -0.0299816 -0.0175919 170 0 0 255 
-0.0638272 -0.0245271 -0.0341552 170 0 0 255 
-0.0661916 -0.0255295 -0.0351282 170 0 0 255 
0.0643071 0.0398488 -0.00477245 177 10 21 255 
0.0639824 0.0398281 -0.00557039 177 10 21 255 
0.0639889 0.0401362 -0.00695539 177 10 21 255 
0.063334 0.0397868 -0.00716364 177 10 21 255 
0.0630103 0.0397662 -0.00795903 177 10 21 255 
0.062687 0.0397455 -0.00875357 177 10 21 255 
0.0617015 0.0390678 -0.00837501 177 10 21 255 
0.0607154 0.0383896 -0.00799624 177 10 21 255 
0.060061 0.0380405 -0.00820429 177 10 21 255 
0.0600712 0.0383499 -0.00958482 177 10 21 255 
0.0594176 0.0380011 -0.0097925 177 10 21 255 
0.0590964 0.0379814 -0.0105854 177 10 21 255 
0.0587756 0.0379617 -0.0113774 177 10 21 255 
0.058455 0.0379421 -0.0121687 177 10 21 255 
0.0534573 0.0332969 -0.00474749 177 10 21 255 
0.0534739 0.0336117 -0.00613532 177 10 21 255 
0.0531548 0.0335942 -0.00693247 177 10 21 255 
0.052164 0.0329129 -0.00655252 177 10 21 255 
0.0521818 0.0332277 -0.00793706 177 10 21 255 
0.0505176 0.0318818 -0.00638092 177 10 21 255 
0.0502 0.0318653 -0.0071781 177 10 21 255 
0.0498828 0.0318487 -0.00797435 177 10 21 255 
0.0482155 0.030501 -0.00641803 177 10 21 255 
0.048237 0.0308182 -0.00780331 177 10 21 255 
0.0469062 0.0298026 -0.00683528 177 10 21 255 
0.0465905 0.0297871 -0.00763214 177 10 21 255 
0.045258 0.0287705 -0.00666376 177 10 21 255 
0.0442636 0.0280869 -0.00628333 177 10 21 255 
0.0432685 0.0274029 -0.00590269 177 10 21 255 
0.0426137 0.0270537 -0.00611159 177 10 21 255 
0.0422999 0.0270397 -0.00690954 177 10 21 255 
0.0409629 0.0260199 -0.0059397 177 10 21 255 
0.0403082 0.0256708 -0.00614861 177 10 21 255 
0.0396536 0.0253217 -0.00635749 177 10 21 255 
0.0386566 0.0246365 -0.0059767 177 10 21 255 
0.0386873 0.0249597 -0.00736398 177 10 21 255 
0.0376905 0.0242747 -0.00698382 177 10 21 255 
0.0370363 0.0239259 -0.00719252 177 10 21 255 
0.0360387 0.0232404 -0.0068122 177 10 21 255 
0.0350404 0.0225546 -0.00643166 177 10 21 255 
0.0350746 0.0228797 -0.0078185 177 10 21 255 
0.0337319 0.0218567 -0.00684937 177 10 21 255 
0.0337673 0.0221825 -0.00823554 177 10 21 255 
0.032769 0.0214968 -0.00785581 177 10 21 255 
0.0321154 0.0211482 -0.00806434 177 10 21 255 
0.0314619 0.0207997 -0.00827294 177 10 21 255 
0.0311541 0.0207889 -0.00906934 177 10 21 255 
0.0311919 0.0211152 -0.0104516 177 10 21 255 
0.030194 0.02043 -0.0100731 177 10 21 255 
0.0295414 0.0200821 -0.0102813 177 10 21 255 
0.0292351 0.0200716 -0.0110756 177 10 21 255 
0.028583 0.0197239 -0.0112836 177 10 21 255 
0.027931 0.0193762 -0.0114915 177 10 21 255 
0.0272792 0.0190285 -0.0116994 177 10 21 255 
0.0269742 0.0190186 -0.0124924 177 10 21 255 
0.0263228 0.0186712 -0.0127001 177 10 21 255 
0.0260185 0.0186615 -0.0134921 177 10 21 255 
0.0257145 0.0186519 -0.0142833 177 10 21 255 
0.025064 0.0183049 -0.0144906 177 10 21 255 
0.0244136 0.0179579 -0.0146978 177 10 21 255 
0.0241107 0.0179486 -0.0154878 177 10 21 255 
0.0227653 0.0169263 -0.0145289 177 10 21 255 
0.0224631 0.0169175 -0.0153192 177 10 21 255 
0.0218131 0.0165708 -0.0155263 177 10 21 255 
0.0215116 0.0165623 -0.0163157 177 10 21 255 
0.0205135 0.0158776 -0.0159404 177 10 21 255 
0.0198639 0.0155311 -0.0161473 177 10 21 255 
0.0192144 0.0151847 -0.0163543 177 10 21 255 
0.0189143 0.0151768 -0.0171429 177 10 21 255 
0.0179157 0.0144919 -0.016768 177 10 21 255 
0.0169164 0.0138066 -0.0163928 177 10 21 255 
0.0169676 0.0141384 -0.017763 177 10 21 255 
0.0159685 0.0134534 -0.0173885 177 10 21 255 
0.0149688 0.0127678 -0.0170136 177 10 21 255 
0.014671 0.0127612 -0.0178018 177 10 21 255 
0.0143734 0.0127546 -0.0185892 177 10 21 255 
0.0133739 0.0120693 -0.0182151 177 10 21 255 
0.013077 0.0120631 -0.0190022 177 10 21 255 
0.0120772 0.0113777 -0.0186282 177 10 21 255 
0.0107239 0.0103513 -0.0176727 177 10 21 255 
0.0100754 0.0100054 -0.0178795 177 10 21 255 
0.010133 0.0103406 -0.0192476 177 10 21 255 
0.00948516 0.00999507 -0.019454 177 10 21 255 
0.00813038 0.00896803 -0.0184996 177 10 21 255 
0.0078362 0.0089634 -0.0192867 177 10 21 255 
0.00718846 0.00861787 -0.0194931 177 10 21 255 
0.00583164 0.00758965 -0.0185386 177 10 21 255 
0.00553862 0.00758566 -0.0193258 177 10 21 255 
0.00489095 0.00724025 -0.0195323 177 10 21 255 
0.00424338 0.0068949 -0.0197387 177 10 21 255 
0.00324023 0.00620749 -0.0193649 177 10 21 255 
0.00294863 0.00620428 -0.0201514 177 10 21 255 
0.00230141 0.00585907 -0.0203578 177 10 21 255 
0.0016543 0.00551394 -0.0205641 177 10 21 255 
0.000293575 0.00448348 -0.0196105 177 10 21 255 
-0.00071141 0.00379502 -0.0192365 177 10 21 255 
-0.0010011 0.00379308 -0.0200235 177 10 21 255 
-0.00129048 0.00379111 -0.0208097 177 10 21 255 
-0.00229529 0.00310281 -0.0204363 177 10 21 255 
-0.00294224 0.00275782 -0.0206427 177 10 21 255 
-0.00394787 0.00206899 -0.0202691 177 10 21 255 
-0.00387699 0.00241156 -0.0216344 177 10 21 255 
-0.00524169 0.00137901 -0.020682 177 10 21 255 
-0.0051696 0.00172221 -0.0220466 177 10 21 255 
-0.00581574 0.0013776 -0.0222527 177 10 21 255 
-0.00682152 0.000688937 -0.0218801 177 10 21 255 
-0.00746766 0.000344296 -0.0220861 177 10 21 255 
-0.00775347 0.000344141 -0.0228706 177 10 21 255 
-0.00875963 -0.000344771 -0.0224982 177 10 21 255 
-0.00904471 -0.000344582 -0.0232823 177 10 21 255 
-0.00932949 -0.000344417 -0.0240655 177 10 21 255 
-0.0103355 -0.00103302 -0.0236939 177 10 21 255 
-0.0113423 -0.00172213 -0.023322 177 10 21 255 
-0.0119877 -0.00206628 -0.0235279 177 10 21 255 
-0.0129952 -0.00275593 -0.0231559 177 10 21 255 
-0.0132781 -0.0027545 -0.0239395 177 10 21 255 
-0.0142859 -0.00344429 -0.0235676 177 10 21 255 
-0.014568 -0.00344252 -0.0243509 177 10 21 255 
-0.0155761 -0.00413238 -0.0239793 177 10 21 255 
-0.0162211 -0.00447635 -0.0241851 177 10 21 255 
-0.01723 -0.00516674 -0.0238133 177 10 21 255 
-0.0175107 -0.00516408 -0.0245966 177 10 21 255 
-0.0185199 -0.00585461 -0.024225 177 10 21 255 
-0.0198952 -0.00689308 -0.023275 177 10 21 255 
-0.0205404 -0.00723707 -0.023481 177 10 21 255 
-0.0200885 -0.00653884 -0.0254191 177 10 21 255 
-0.0214641 -0.00757714 -0.0244707 177 10 21 255 
-0.0235764 -0.00931431 -0.0223633 177 10 21 255 
-0.0245897 -0.0100077 -0.0219901 177 10 21 255 
-0.0252353 -0.0103519 -0.0221965 177 10 21 255 
-0.0251442 -0.00999742 -0.0235606 177 10 21 255 
-0.0250533 -0.00964353 -0.0249222 177 10 21 255 
-0.0404535 -0.0234323 -0.00444601 177 10 21 255 
-0.0403466 -0.0230604 -0.0058457 177 10 21 255 
-0.0409989 -0.0234078 -0.00605608 177 10 21 255 
-0.041651 -0.023755 -0.00626644 177 10 21 255 
-0.0419229 -0.0237426 -0.00706997 177 10 21 255 
-0.0425746 -0.0240897 -0.00728012 177 10 21 255 
-0.0428458 -0.0240771 -0.00808271 177 10 21 255 
-0.0585903 -0.0386894 0.0151976 177 10 21 255 
-0.0584641 -0.0382971 0.013758 177 10 21 255 
-0.0595182 -0.0390201 0.0141543 177 10 21 255 
-0.0601787 -0.0393714 0.0139389 177 10 21 255 
-0.0604449 -0.0393505 0.0131123 177 10 21 255 
-0.0607108 -0.0393296 0.0122866 177 10 21 255 
-0.0609764 -0.0393087 0.0114617 177 10 21 255 
-0.0612418 -0.0392878 0.0106376 177 10 21 255 
-0.0568827 -0.0317096 -0.0118937 177 10 21 255 
-0.0575318 -0.0320552 -0.0121031 177 10 21 255 
-0.0574089 -0.0316765 -0.0134902 177 10 21 255 
-0.0580572 -0.0320218 -0.0136991 177 10 21 255 
-0.0583196 -0.0320051 -0.0144959 177 10 21 255 
-0.0585816 -0.0319884 -0.0152919 177 10 21 255 
-0.0600016 -0.0330573 -0.0143257 177 10 21 255 
-0.0606495 -0.0334024 -0.0145345 177 10 21 255 
-0.0612973 -0.0337475 -0.0147432 177 10 21 255 
-0.061171 -0.0333676 -0.0161258 177 10 21 255 
-0.061818 -0.0337123 -0.0163342 177 10 21 255 
-0.062078 -0.0336947 -0.0171284 177 10 21 255 
-0.0623377 -0.0336772 -0.0179218 177 10 21 255 
-0.0622107 -0.0332982 -0.0192985 177 10 21 255 
-0.0596506 -0.0303864 -0.0255239 177 10 21 255 
0.0645504 0.0415607 -0.00666642 184 21 42 255 
0.0618176 0.0395814 -0.00441315 184 21 42 255 
0.0629165 0.0405407 -0.00678477 184 21 42 255 
0.0623121 0.0401937 -0.00710039 184 21 42 255 
0.0617077 0.0398467 -0.00741596 184 21 42 255 
0.0606773 0.0391732 -0.00721886 184 21 42 255 
0.0604994 0.0391531 -0.00804698 184 21 42 255 
0.0590417 0.0381522 -0.00733743 184 21 42 255 
0.0588646 0.0381325 -0.00816564 184 21 42 255 
0.0586877 0.0381129 -0.00899304 184 21 42 255 
0.0585109 0.0380933 -0.00981956 184 21 42 255 
0.0583343 0.0380737 -0.0106452 184 21 42 255 
0.0521512 0.0334552 -0.00428934 184 21 42 255 
0.0524083 0.0337681 -0.00563719 184 21 42 255 
0.051803 0.0334206 -0.00595379 184 21 42 255 
0.0524909 0.0340627 -0.00781207 184 21 42 255 
0.0510243 0.0330561 -0.0071011 184 21 42 255 
0.0504196 0.032709 -0.00741739 184 21 42 255 
0.0489504 0.0317006 -0.00670556 184 21 42 255 
0.0479124 0.0310222 -0.00650766 184 21 42 255 
0.0468737 0.0303432 -0.00630948 184 21 42 255 
0.0471357 0.030659 -0.00765508 184 21 42 255 
0.0452289 0.0293164 -0.00642821 184 21 42 255 
0.0450583 0.0293013 -0.00725978 184 21 42 255 
0.0440185 0.0286217 -0.0070619 184 21 42 255 
0.0421058 0.0272753 -0.00583309 184 21 42 255 
0.0423727 0.0275943 -0.00718079 184 21 42 255 
0.0408947 0.0265802 -0.00646756 184 21 42 255 
0.0402893 0.0262327 -0.00678464 184 21 42 255 
0.0392465 0.0255512 -0.00658639 184 21 42 255 
0.0386411 0.0252037 -0.0069036 184 21 42 255 
0.0375974 0.0245216 -0.00670532 184 21 42 255 
0.036992 0.0241742 -0.00702265 184 21 42 255 
0.0359475 0.0234916 -0.00682436 184 21 42 255 
0.035342 0.0231442 -0.00714171 184 21 42 255 
0.0342967 0.022461 -0.0069434 184 21 42 255 
0.0336912 0.0221135 -0.00726078 184 21 42 255 
0.0330859 0.0217662 -0.00757821 184 21 42 255 
0.0324806 0.0214188 -0.00789551 184 21 42 255 
0.0318755 0.0210715 -0.00821277 184 21 42 255 
0.0312704 0.0207243 -0.00852998 184 21 42 255 
0.0311068 0.0207135 -0.00936167 184 21 42 255 
0.0313841 0.0210388 -0.010706 184 21 42 255 
0.0294559 0.019683 -0.00948131 184 21 42 255 
0.0292933 0.0196728 -0.0103123 184 21 42 255 
0.028689 0.019326 -0.0106291 184 21 42 255 
0.0285268 0.019316 -0.0114589 184 21 42 255 
0.0279229 0.0189694 -0.0117755 184 21 42 255 
0.0273192 0.0186229 -0.0120919 184 21 42 255 
0.0271578 0.0186133 -0.0129204 184 21 42 255 
0.0265545 0.018267 -0.0132366 184 21 42 255 
