ply
format ascii 1.0
element vertex 1090
property float x
property float y
property float z
property uchar red
property uchar green
property uchar blue
property uchar alpha
end_header
-3.93167 -0.119799 46.0545 95 159 63 255 
-3.94527 -0.0456407 46.0288 95 159 63 255 
-3.95635 0.164623 45.9523 95 159 63 255 
-3.9678 0.361364 45.8808 95 159 63 255 
-3.9813 0.452173 45.8489 95 159 63 255 
-3.99594 0.481881 45.8399 95 159 63 255 
-4.00488 0.836029 45.7097 95 159 63 255 
-4.01802 0.959688 45.6656 95 159 63 255 
-4.03361 0.943016 45.6739 95 159 63 255 
-4.04919 0.926358 45.6822 95 159 63 255 
-4.06347 0.987766 45.6613 95 159 63 255 
-4.07854 1.00234 45.658 95 159 63 255 
-4.09213 1.11097 45.6195 95 159 63 255 
-4.10868 1.03149 45.6513 95 159 63 255 
-4.12422 1.01478 45.6596 95 159 63 255 
-4.13883 1.06065 45.6445 95 159 63 255 
-4.15414 1.05957 45.647 95 159 63 255 
-4.16877 1.10551 45.632 95 159 63 255 
-4.18255 1.21444 45.5934 95 159 63 255 
-4.19831 1.18185 45.6076 95 159 63 255 
-4.21426 1.13361 45.6277 95 159 63 255 
-4.22629 1.38485 45.5361 95 159 63 255 
-4.24186 1.36785 45.5445 95 159 63 255 
-4.2611 1.05203 45.6644 95 159 63 255 
-4.27522 1.14492 45.6318 95 159 63 255 
-4.28717 1.42777 45.5285 95 159 63 255 
-4.30253 1.42661 45.531 95 159 63 255 
-7.18938 5.56354 44.3883 95 159 63 255 
-7.2063 5.59729 44.3781 95 159 63 255 
-7.22402 5.64905 44.3613 95 159 63 255 
-7.23863 5.62888 44.3707 95 159 63 255 
-7.25243 5.59077 44.3867 95 159 63 255 
-7.27256 5.69649 44.3502 95 159 63 255 
-7.28795 5.69429 44.3532 95 159 63 255 
-7.30333 5.69209 44.3561 95 159 63 255 
-7.31951 5.7079 44.3524 95 159 63 255 
-7.33325 5.6697 44.3684 95 159 63 255 
-7.34615 5.61362 44.391 95 159 63 255 
-7.36065 5.59351 44.4005 95 159 63 255 
-7.37432 5.55551 44.4164 95 159 63 255 
-7.38879 5.53546 44.4258 95 159 63 255 
-7.40408 5.53331 44.4287 95 159 63 255 
-7.41937 5.53115 44.4316 95 159 63 255 
-7.43465 5.529 44.4345 95 159 63 255 
-7.45161 5.56261 44.4243 95 159 63 255 
-7.46603 5.54257 44.4337 95 159 63 255 
-7.48043 5.52256 44.4431 95 159 63 255 
-7.49482 5.50256 44.4525 95 159 63 255 
-7.51093 5.51826 44.4488 95 159 63 255 
-7.52529 5.49828 44.4582 95 159 63 255 
-7.64962 5.53462 44.4616 95 159 63 255 
-7.66113 5.46128 44.4904 95 159 63 255 
-7.67445 5.42363 44.5062 95 159 63 255 
-7.69144 5.45703 44.4961 95 159 63 255 
-7.70472 5.4194 44.5119 95 159 63 255 
-7.74438 5.59304 44.4528 95 159 63 255 
-7.75764 5.55523 44.4687 95 159 63 255 
-7.78792 5.55093 44.4744 95 159 63 255 
-7.80209 5.53098 44.4837 95 159 63 255 
-7.81624 5.51106 44.493 95 159 63 255 
-7.83038 5.49116 44.5024 95 159 63 255 
-7.84353 5.45355 44.5181 95 159 63 255 
-7.86154 5.50466 44.5016 95 159 63 255 
-7.87466 5.46704 44.5173 95 159 63 255 
-7.88874 5.44719 44.5266 95 159 63 255 
-7.90976 5.55156 44.4907 95 159 63 255 
-7.92384 5.53164 44.5 95 159 63 255 
-7.9379 5.51175 44.5093 95 159 63 255 
-7.94692 5.40336 44.5508 95 159 63 255 
-7.96093 5.3836 44.56 95 159 63 255 
-7.98713 5.57639 44.4921 95 159 63 255 
-7.99502 5.45009 44.54 95 159 63 255 
-8.01004 5.44797 44.5428 95 159 63 255 
-8.01888 5.33996 44.5841 95 159 63 255 
-8.03901 5.42607 44.5549 95 159 63 255 
-8.05297 5.40631 44.5641 95 159 63 255 
-8.0669 5.38656 44.5734 95 159 63 255 
-8.08501 5.43742 44.5569 95 159 63 255 
-8.09893 5.41765 44.5662 95 159 63 255 
-8.12025 5.52163 44.5305 95 159 63 255 
-8.13417 5.50179 44.5397 95 159 63 255 
-8.14701 5.46431 44.5554 95 159 63 255 
-8.16089 5.44453 44.5646 95 159 63 255 
-8.17476 5.42478 44.5739 95 159 63 255 
-8.21333 5.56198 44.5282 95 159 63 255 
-8.21518 5.34807 44.6078 95 159 63 255 
-8.23226 5.38115 44.5979 95 159 63 255 
-8.25266 5.46717 44.5687 95 159 63 255 
-8.26758 5.46506 44.5715 95 159 63 255 
-8.28359 5.48059 44.5679 95 159 63 255 
-8.29738 5.46084 44.5772 95 159 63 255 
-8.31115 5.4411 44.5863 95 159 63 255 
-8.32716 5.45662 44.5828 95 159 63 255 
-8.34091 5.43689 44.592 95 159 63 255 
-8.35465 5.41719 44.6011 95 159 63 255 
-8.37178 5.4503 44.5912 95 159 63 255 
-8.3855 5.43059 44.6004 95 159 63 255 
-8.3992 5.41091 44.6095 95 159 63 255 
-8.42443 5.56746 44.5549 95 159 63 255 
-8.42772 5.38916 44.6215 95 159 63 255 
-8.44137 5.36952 44.6306 95 159 63 255 
-8.46435 5.49049 44.5889 95 159 63 255 
-8.47801 5.47077 44.598 95 159 63 255 
-8.49165 5.45107 44.6072 95 159 63 255 
-8.51119 5.51939 44.5845 95 159 63 255 
-8.52602 5.51727 44.5873 95 159 63 255 
-8.53488 5.4272 44.622 95 159 63 255 
-8.55444 5.49542 44.5993 95 159 63 255 
-8.57767 5.61678 44.5574 95 159 63 255 
-8.59007 5.57931 44.573 95 159 63 255 
-8.60974 5.64785 44.5502 95 159 63 255 
-8.61481 5.50457 44.6041 95 159 63 255 
-8.62837 5.48487 44.6133 95 159 63 255 
-8.64313 5.48277 44.6161 95 159 63 255 
-8.66035 5.51582 44.6061 95 159 63 255 
-8.67388 5.49612 44.6153 95 159 63 255 
-8.68615 5.45889 44.6308 95 159 63 255 
-8.69593 5.38671 44.6589 95 159 63 255 
-8.7094 5.36714 44.668 95 159 63 255 
-8.72285 5.34759 44.6771 95 159 63 255 
-8.74379 5.43298 44.6482 95 159 63 255 
-13.1356 3.90135 45.8143 95 159 63 255 
-16.2616 18.4219 40.8501 95 159 63 255 
10.3801 -12.7052 48.1487 102 170 85 255 
10.266 -13.1423 48.3496 102 170 85 255 
10.3402 -12.7438 48.1732 102 170 85 255 
10.2809 -12.9386 48.2647 102 170 85 255 
10.1646 -13.3887 48.4713 102 170 85 255 
8.15129 -13.6734 49.045 102 170 85 255 
8.05886 -14.1383 49.2521 102 170 85 255 
8.06554 -14.0136 49.2007 102 170 85 255 
7.98387 -14.4173 49.3808 102 170 85 255 
8.00047 -14.2333 49.3034 102 170 85 255 
7.26012 -13.9361 49.3536 102 170 85 255 
7.22731 -14.0675 49.4136 102 170 85 255 
7.14792 -14.5252 49.6149 102 170 85 255 
7.13431 -14.5246 49.6177 102 170 85 255 
7.10498 -14.6344 49.6684 102 170 85 255 
7.10348 -14.5488 49.6345 102 170 85 255 
20.6892 84.5876 6.8697 102 170 85 255 
6.36832 -14.4706 49.7711 102 170 85 255 
6.37329 -14.317 49.7085 102 170 85 255 
6.28491 -14.945 49.9799 102 170 85 255 
6.32127 -14.5278 49.8047 102 170 85 255 
6.32501 -14.3833 49.746 102 170 85 255 
6.26894 -14.7443 49.9033 102 170 85 255 
0.0795044 -0.573672 45.6473 102 170 85 255 
0.0643364 -0.591326 45.6578 102 170 85 255 
0.0491848 -0.608963 45.6683 102 170 85 255 
0.0340487 -0.626584 45.6788 102 170 85 255 
0.0189304 -0.644182 45.6893 102 170 85 255 
0.00382671 -0.661764 45.6998 102 170 85 255 
-0.0134458 -0.633301 45.6923 102 170 85 255 
-0.0277967 -0.666224 45.7088 102 170 85 255 
-0.0428586 -0.683774 45.7192 102 170 85 255 
-0.0601348 -0.655351 45.7118 102 170 85 255 
-0.0766743 -0.642244 45.7104 102 170 85 255 
-0.0924632 -0.644478 45.7148 102 170 85 255 
-0.10673 -0.677354 45.7313 102 170 85 255 
-0.120972 -0.710174 45.7476 102 170 85 255 
-0.136721 -0.712387 45.7521 102 170 85 255 
-0.151691 -0.729874 45.7625 102 170 85 255 
-0.168199 -0.716813 45.7611 102 170 85 255 
-0.183146 -0.734291 45.7715 102 170 85 255 
-0.198862 -0.736497 45.776 102 170 85 255 
-0.216945 -0.692896 45.7626 102 170 85 255 
-0.232663 -0.695114 45.7671 102 170 85 255 
-0.246772 -0.72786 45.7834 102 170 85 255 
-0.261659 -0.745312 45.7938 102 170 85 255 
-0.277343 -0.747515 45.7983 102 170 85 255 
-0.292203 -0.764944 45.8087 102 170 85 255 
-0.311965 -0.690917 45.7836 102 170 85 255 
-0.327647 -0.693133 45.788 102 170 85 255 
-0.347482 -0.618926 45.7629 102 170 85 255 
-0.359823 -0.682298 45.791 102 170 85 255 
-0.373807 -0.715018 45.8073 102 170 85 255 
-0.389454 -0.717223 45.8118 102 170 85 255 
-0.405096 -0.719431 45.8162 102 170 85 255 
-0.419877 -0.736861 45.8266 102 170 85 255 
-0.43464 -0.754271 45.8369 102 170 85 255 
-0.448528 -0.786854 45.8531 102 170 85 255 
-0.464121 -0.789038 45.8576 102 170 85 255 
-0.477968 -0.821556 45.8737 102 170 85 255 
-0.496166 -0.77823 45.8605 102 170 85 255 
-0.514392 -0.734844 45.8474 102 170 85 255 
-0.533535 -0.676159 45.8282 102 170 85 255 
-0.545557 -0.739239 45.8562 102 170 85 255 
-0.560234 -0.756625 45.8665 102 170 85 255 
-0.582118 -0.652318 45.8298 102 170 85 255 
-0.599527 -0.62403 45.8225 102 170 85 255 
-0.609631 -0.717635 45.8622 102 170 85 255 
-0.633466 -0.582673 45.8137 102 170 85 255 
-0.647202 -0.615447 45.8299 102 170 85 255 
-0.660916 -0.648168 45.8461 102 170 85 255 
-0.67554 -0.665614 45.8564 102 170 85 255 
-0.690149 -0.683043 45.8668 102 170 85 255 
-0.704742 -0.700451 45.8771 102 170 85 255 
-0.729762 -0.550251 45.8227 102 170 85 255 
-0.745327 -0.552494 45.8271 102 170 85 255 
-0.75992 -0.570008 45.8375 102 170 85 255 
-0.778368 -0.526402 45.8242 102 170 85 255 
-0.792948 -0.543935 45.8346 102 170 85 255 
-0.807513 -0.561452 45.8449 102 170 85 255 
-0.822061 -0.578948 45.8552 102 170 85 255 
-0.836593 -0.596424 45.8655 102 170 85 255 
-0.850122 -0.629106 45.8817 102 170 85 255 
-0.863627 -0.661731 45.8979 102 170 85 255 
-0.887093 -0.542113 45.8554 102 170 85 255 
-0.907636 -0.467916 45.8304 102 170 85 255 
-0.922144 -0.485478 45.8407 102 170 85 255 
-0.939691 -0.457127 45.8334 102 170 85 255 
-0.954179 -0.474691 45.8437 102 170 85 255 
-0.964548 -0.553303 45.8775 102 170 85 255 
-0.977962 -0.586008 45.8937 102 170 85 255 
-1.00586 -0.4049 45.8276 102 170 85 255 
-1.02136 -0.407175 45.832 102 170 85 255 
-1.03476 -0.440083 45.8483 102 170 85 255 
-1.04708 -0.488216 45.8703 102 170 85 255 
-1.06149 -0.505734 45.8806 102 170 85 255 
-1.08118 -0.446874 45.8616 102 170 85 255 
-1.10306 -0.357208 45.8307 102 170 85 255 
-1.11639 -0.390167 45.8469 102 170 85 255 
-1.1297 -0.423068 45.8631 102 170 85 255 
-1.14298 -0.455912 45.8793 102 170 85 255 
-1.16168 -0.412297 45.8661 102 170 85 255 
-1.17931 -0.383946 45.8588 102 170 85 255 
-1.19475 -0.386222 45.8632 102 170 85 255 
-1.21571 -0.311814 45.8383 102 170 85 255 
-1.22895 -0.344804 45.8545 102 170 85 255 
-1.23882 -0.423632 45.8883 102 170 85 255 
-1.25311 -0.441171 45.8985 102 170 85 255 
-1.27523 -0.351652 45.8678 102 170 85 255 
-1.28839 -0.384557 45.884 102 170 85 255 
-1.29927 -0.447941 45.9118 102 170 85 255 
-1.31919 -0.389101 45.8928 102 170 85 255 
-1.33458 -0.391371 45.8972 102 170 85 255 
-1.35455 -0.332423 45.8782 102 170 85 255 
-1.36994 -0.33471 45.8826 102 170 85 255 
-1.38416 -0.352303 45.8929 102 170 85 255 
-1.39606 -0.400444 45.9149 102 170 85 255 
-1.40908 -0.433229 45.931 102 170 85 255 
-1.42325 -0.450726 45.9412 102 170 85 255 
-1.43741 -0.468204 45.9514 102 170 85 255 
-1.4539 -0.455229 45.95 102 170 85 255 
-1.46803 -0.472696 45.9602 102 170 85 255 
-1.48096 -0.505342 45.9762 102 170 85 255 
-1.49387 -0.537931 45.9922 102 170 85 255 
-1.5163 -0.449006 45.9618 102 170 85 255 
-1.53039 -0.466466 45.972 102 170 85 255 
-1.54447 -0.483908 45.9822 102 170 85 255 
-1.56215 -0.455751 45.9749 102 170 85 255 
-1.575 -0.488386 45.9909 102 170 85 255 
-0.320622 -16.9695 52.2983 102 170 85 255 
-0.320106 -17.0993 52.3501 102 170 85 255 
-0.339946 -16.9809 52.3072 102 170 85 255 
-0.346892 -17.0192 52.3242 102 170 85 255 
-1.73228 -0.45006 46.0115 102 170 85 255 
-1.74622 -0.467482 46.0217 102 170 85 255 
-1.76015 -0.484883 46.0318 102 170 85 255 
-1.77279 -0.517403 46.0477 102 170 85 255 
-1.78541 -0.549869 46.0636 102 170 85 255 
-1.80056 -0.552084 46.0679 102 170 85 255 
-1.8093 -0.629694 46.101 102 170 85 255 
-1.83085 -0.556513 46.0766 102 170 85 255 
-1.84211 -0.603968 46.0982 102 170 85 255 
-1.85722 -0.606167 46.1025 102 170 85 255 
-1.87233 -0.608365 46.1068 102 170 85 255 
-1.88873 -0.595508 46.1054 102 170 85 255 
-1.90252 -0.612763 46.1155 102 170 85 255 
-1.91368 -0.660058 46.137 102 170 85 255 
-1.92743 -0.677251 46.147 102 170 85 255 
-1.94249 -0.67943 46.1513 102 170 85 255 
-1.95622 -0.6966 46.1613 102 170 85 255 
-1.97391 -0.668785 46.1542 102 170 85 255 
-1.98629 -0.700944 46.1699 102 170 85 255 
-2.00398 -0.673144 46.1628 102 170 85 255 
-2.01901 -0.675324 46.1671 102 170 85 255 
-2.04211 -0.587408 46.1372 102 170 85 255 
-2.0531 -0.634685 46.1586 102 170 85 255 
-2.05865 -0.741692 46.2027 102 170 85 255 
-2.07634 -0.713957 46.1957 102 170 85 255 
-2.09133 -0.716123 46.2 102 170 85 255 
-2.10495 -0.733232 46.2099 102 170 85 255 
-2.11855 -0.750321 46.2199 102 170 85 255 
-2.13351 -0.752477 46.2241 102 170 85 255 
-2.15121 -0.724777 46.2171 102 170 85 255 
-2.17032 -0.682095 46.2044 102 170 85 255 
-2.18111 -0.729097 46.2257 102 170 85 255 
-2.19467 -0.746175 46.2356 102 170 85 255 
-2.2082 -0.763236 46.2455 102 170 85 255 
-2.22872 -0.705719 46.2272 102 170 85 255 
-2.23804 -0.767535 46.254 102 170 85 255 
-2.25154 -0.784569 46.2639 102 170 85 255 
-2.26502 -0.801586 46.2738 102 170 85 255 
-2.27991 -0.803723 46.2781 102 170 85 255 
-2.30189 -0.73144 46.2542 102 170 85 255 
-2.31535 -0.748492 46.2641 102 170 85 255 
-2.32881 -0.76553 46.274 102 170 85 255 
-2.34082 -0.797411 46.2895 102 170 85 255 
-2.35999 -0.754944 46.2768 102 170 85 255 
-2.37341 -0.771966 46.2867 102 170 85 255 
-2.38682 -0.788967 46.2966 102 170 85 255 
-2.40311 -0.776251 46.2952 102 170 85 255 
-2.4165 -0.793243 46.3051 102 170 85 255 
-2.4255 -0.854686 46.3317 102 170 85 255 
-2.43885 -0.871607 46.3415 102 170 85 255 
-2.45804 -0.829306 46.329 102 170 85 255 
-2.4699 -0.861045 46.3444 102 170 85 255 
-2.48322 -0.87795 46.3542 102 170 85 255 
-2.50686 -0.79122 46.3249 102 170 85 255 
-2.51869 -0.822998 46.3403 102 170 85 255 
-2.53199 -0.839928 46.3501 102 170 85 255 
-2.55272 -0.782793 46.332 102 170 85 255 
-2.56451 -0.814568 46.3474 102 170 85 255 
-2.57778 -0.831496 46.3572 102 170 85 255 
-2.59253 -0.833618 46.3614 102 170 85 255 
-2.60728 -0.83574 46.3656 102 170 85 255 
-2.62354 -0.823071 46.3643 102 170 85 255 
-2.63525 -0.854758 46.3796 102 170 85 255 
-2.64998 -0.856874 46.3838 102 170 85 255 
-2.66165 -0.888501 46.3992 102 170 85 255 
-2.67635 -0.890605 46.4034 102 170 85 255 
-2.69105 -0.892711 46.4076 102 170 85 255 
-2.70882 -0.865326 46.4007 102 170 85 255 
-2.72197 -0.882181 46.4104 102 170 85 255 
-2.73666 -0.884287 46.4146 102 170 85 255 
-2.75289 -0.871654 46.4132 102 170 85 255 
-2.76601 -0.888496 46.423 102 170 85 255 
-2.78067 -0.890599 46.4272 102 170 85 255 
-2.79533 -0.892702 46.4314 102 170 85 255 
-2.81155 -0.880081 46.43 102 170 85 255 
-2.82777 -0.867456 46.4287 102 170 85 255 
-2.84873 -0.810578 46.4107 102 170 85 255 
-2.86181 -0.827456 46.4204 102 170 85 255 
-2.87329 -0.85905 46.4357 102 170 85 255 
-2.88475 -0.890592 46.4509 102 170 85 255 
-2.90096 -0.877983 46.4496 102 170 85 255 
-2.91717 -0.865373 46.4483 102 170 85 255 
-2.93179 -0.867478 46.4524 102 170 85 255 
-2.9464 -0.869582 46.4566 102 170 85 255 
-2.95939 -0.886389 46.4663 102 170 85 255 
-2.97883 -0.844365 46.4539 102 170 85 255 
-2.99019 -0.875892 46.4691 102 170 85 255 
-3.00478 -0.877993 46.4733 102 170 85 255 
-3.01773 -0.894781 46.483 102 170 85 255 
-3.03556 -0.8675 46.4761 102 170 85 255 
-3.05013 -0.8696 46.4803 102 170 85 255 
-3.06469 -0.871703 46.4845 102 170 85 255 
-3.07925 -0.873805 46.4886 102 170 85 255 
-3.0938 -0.875902 46.4928 102 170 85 255 
-3.11 -0.863317 46.4915 102 170 85 255 
-3.12454 -0.865419 46.4956 102 170 85 255 
-3.13742 -0.882197 46.5053 102 170 85 255 
-3.16362 -0.781399 46.4709 102 170 85 255 
-3.17482 -0.812956 46.4861 102 170 85 255 
-3.18768 -0.829772 46.4958 102 170 85 255 
-3.20221 -0.831879 46.4999 102 170 85 255 
-3.21672 -0.833985 46.5041 102 170 85 255 
-3.23462 -0.806705 46.4973 102 170 85 255 
-3.24744 -0.823512 46.5069 102 170 85 255 
-3.26194 -0.825621 46.5111 102 170 85 255 
-3.27474 -0.842408 46.5207 102 170 85 255 
-3.29605 -0.78576 46.5029 102 170 85 255 
-3.3157 -0.743732 46.4906 102 170 85 255 
-3.32848 -0.760578 46.5002 102 170 85 255 
-3.3447 -0.747986 46.4989 102 170 85 255 
-3.35746 -0.764823 46.5086 102 170 85 255 
-3.37888 -0.708054 46.4907 102 170 85 255 
-3.39686 -0.680698 46.4839 102 170 85 255 
-3.41135 -0.682838 46.4881 102 170 85 255 
-3.42584 -0.68498 46.4922 102 170 85 255 
-3.44559 -0.642848 46.4799 102 170 85 255 
-3.45832 -0.65976 46.4896 102 170 85 255 
-3.47279 -0.661908 46.4937 102 170 85 255 
-3.49613 -0.590186 46.4704 102 170 85 255 
-3.50705 -0.621914 46.4855 102 170 85 255 
-3.53223 -0.535283 46.4566 102 170 85 255 
-3.54672 -0.53746 46.4608 102 170 85 255 
-3.563 -0.524813 46.4595 102 170 85 255 
-3.58831 -0.437894 46.4305 102 170 85 255 
-3.60462 -0.425215 46.4291 102 170 85 255 
-3.6173 -0.442292 46.4389 102 170 85 255 
-3.6409 -0.370047 46.4153 102 170 85 255 
-3.65723 -0.357352 46.414 102 170 85 255 
-3.67356 -0.344656 46.4126 102 170 85 255 
-3.68806 -0.346879 46.4168 102 170 85 255 
-3.70624 -0.319252 46.4099 102 170 85 255 
-3.71888 -0.336406 46.4197 102 170 85 255 
-3.73707 -0.308777 46.4128 102 170 85 255 
-3.75714 -0.266177 46.4003 102 170 85 255 
-3.77724 -0.223513 46.3879 102 170 85 255 
-3.79361 -0.210781 46.3865 102 170 85 255 
-3.80999 -0.198048 46.3851 102 170 85 255 
-3.83392 -0.125244 46.3615 102 170 85 255 
-3.84653 -0.142549 46.3713 102 170 85 255 
-3.86103 -0.144821 46.3755 102 170 85 255 
-3.9061 0.0943411 46.2901 102 170 85 255 
-4.03038 0.956057 45.9737 102 170 85 255 
-4.04915 0.98491 45.9665 102 170 85 255 
-4.06393 0.982341 45.9709 102 170 85 255 
-4.07669 0.964068 45.9811 102 170 85 255 
-4.09146 0.961502 45.9855 102 170 85 255 
-4.11227 1.00606 45.9724 102 170 85 255 
-4.13108 1.03494 45.9652 102 170 85 255 
-4.14584 1.03236 45.9696 102 170 85 255 
-4.16264 1.04551 45.9682 102 170 85 255 
-4.17739 1.04293 45.9726 102 170 85 255 
-4.19214 1.04035 45.977 102 170 85 255 
-4.20688 1.03776 45.9814 102 170 85 255 
-4.22367 1.05091 45.9799 102 170 85 255 
-4.23634 1.0326 45.9901 102 170 85 255 
-4.25106 1.03003 45.9945 102 170 85 255 
-4.26785 1.04316 45.9931 102 170 85 255 
-4.29294 1.11928 45.9684 102 170 85 255 
-4.30558 1.10092 45.9786 102 170 85 255 
-4.34122 1.25629 45.9246 102 170 85 255 
-4.35177 1.22199 45.9407 102 170 85 255 
-4.36441 1.20355 45.951 102 170 85 255 
-4.38124 1.21673 45.9496 102 170 85 255 
-4.39597 1.21411 45.954 102 170 85 255 
-4.41069 1.21148 45.9584 102 170 85 255 
-4.44028 1.31971 45.9219 102 170 85 255 
-4.45288 1.3012 45.9321 102 170 85 255 
-4.47403 1.34615 45.919 102 170 85 255 
-4.49305 1.37527 45.9117 102 170 85 255 
-4.50563 1.35671 45.922 102 170 85 255 
-4.5182 1.33818 45.9323 102 170 85 255 
-4.5286 1.30382 45.9484 102 170 85 255 
-4.53897 1.26951 45.9645 102 170 85 255 
-7.59076 5.12649 45.1183 102 170 85 255 
-7.60218 5.10497 45.1295 102 170 85 255 
-7.61359 5.08347 45.1407 102 170 85 255 
-7.6217 5.04416 45.1583 102 170 85 255 
-7.6298 5.00493 45.1758 102 170 85 255 
-7.64445 5.00132 45.1806 102 170 85 255 
-7.67373 4.9941 45.1902 102 170 85 255 
-7.68177 4.95497 45.2077 102 170 85 255 
-7.69309 4.93364 45.2188 102 170 85 255 
-7.7143 4.96552 45.2109 102 170 85 255 
-7.7256 4.94419 45.222 102 170 85 255 
-7.7601 5.04715 45.1887 102 170 85 255 
-7.77138 5.02575 45.1998 102 170 85 255 
-7.78266 5.00436 45.2109 102 170 85 255 
-7.78062 4.91212 45.2474 102 170 85 255 
-7.81184 4.99715 45.2205 102 170 85 255 
-7.82307 4.97581 45.2316 102 170 85 255 
-7.8343 4.95449 45.2427 102 170 85 255 
-8.76914 6.52493 44.8279 102 170 85 255 
-8.73176 6.26114 44.9249 102 170 85 255 
-8.74266 6.23873 44.9363 102 170 85 255 
-8.74615 6.17951 44.9608 102 170 85 255 
-8.75702 6.15718 44.9722 102 170 85 255 
-8.74941 6.04319 45.0161 102 170 85 255 
-8.76025 6.021 45.0274 102 170 85 255 
-8.77477 6.01712 45.0323 102 170 85 255 
-8.70851 5.61404 45.1784 102 170 85 255 
-8.71928 5.59228 45.1896 102 170 85 255 
-8.73005 5.57054 45.2008 102 170 85 255 
-8.74079 5.54883 45.2119 102 170 85 255 
-8.79183 5.72525 45.153 102 170 85 255 
11.8998 -11.9714 46.8829 108 180 106 255 
11.896 -11.8158 46.8151 108 180 106 255 
11.8805 -11.8267 46.8249 108 180 106 255 
11.8401 -12.197 47.0023 108 180 106 255 
11.8428 -11.9461 46.8901 108 180 106 255 
9.9472 -12.6054 47.7946 108 180 106 255 
9.93261 -12.6522 47.8201 108 180 106 255 
9.91691 -12.772 47.8783 108 180 106 255 
9.90328 -12.7637 47.879 108 180 106 255 
9.88353 -13.1611 48.0618 108 180 106 255 
9.86474 -13.5147 48.2248 108 180 106 255 
9.1177 -13.5076 48.4628 108 180 106 255 
9.10235 -13.2202 48.3401 108 180 106 255 
9.0928 -13.7069 48.5592 108 180 106 255 
9.07988 -13.7331 48.5751 108 180 106 255 
9.06835 -13.9206 48.662 108 180 106 255 
9.05485 -13.8704 48.6441 108 180 106 255 
7.70278 85.9222 4.78521 108 180 106 255 
8.33132 -13.5032 48.7146 108 180 106 255 
8.3194 -13.5382 48.734 108 180 106 255 
8.31036 -13.6667 48.794 108 180 106 255 
8.29483 -13.5822 48.7615 108 180 106 255 
8.30161 -14.2114 49.0386 108 180 106 255 
8.28893 -14.2119 49.0429 108 180 106 255 
0.115076 -0.477161 45.5847 108 180 106 255 
0.106159 -0.511249 45.6027 108 180 106 255 
0.0942967 -0.530116 45.6149 108 180 106 255 
0.0854085 -0.56411 45.6329 108 180 106 255 
0.0735734 -0.582924 45.645 108 180 106 255 
0.0617506 -0.60172 45.6572 108 180 106 255 
0.0558748 -0.650668 45.6808 108 180 106 255 
0.041114 -0.654323 45.6872 108 180 106 255 
0.0204094 -0.627823 45.6821 108 180 106 255 
0.00565254 -0.631487 45.6885 108 180 106 255 
-0.00313054 -0.665287 45.7063 108 180 106 255 
-0.0118991 -0.699029 45.7241 108 180 106 255 
-0.0266193 -0.70267 45.7305 108 180 106 255 
-0.041334 -0.706309 45.7369 108 180 106 255 
-0.080051 -0.589459 45.6975 108 180 106 255 
-0.0647499 -0.743596 45.761 108 180 106 255 
-0.0764403 -0.762213 45.773 108 180 106 255 
-0.0941171 -0.750846 45.7737 108 180 106 255 
-0.117816 -0.709467 45.763 108 180 106 255 
-0.132496 -0.713101 45.7693 108 180 106 255 
-0.14415 -0.731734 45.7813 108 180 106 255 
-0.152773 -0.765325 45.799 108 180 106 255 
-0.16742 -0.768938 45.8054 108 180 106 255 
-0.19418 -0.712623 45.789 108 180 106 255 
-0.205795 -0.731245 45.801 108 180 106 255 
-0.226518 -0.704886 45.796 108 180 106 255 
-0.238113 -0.723508 45.808 108 180 106 255 
-0.268016 -0.652097 45.786 108 180 106 255 
-0.282661 -0.655742 45.7923 108 180 106 255 
-0.294234 -0.674404 45.8043 108 180 106 255 
-0.308862 -0.678044 45.8107 108 180 106 255 
-0.314274 -0.726648 45.834 108 180 106 255 
-0.325807 -0.745237 45.846 108 180 106 255 
-0.352709 -0.688949 45.8297 108 180 106 255 
-0.364227 -0.707567 45.8417 108 180 106 255 
-0.400474 -0.606122 45.8083 108 180 106 255 
-0.408884 -0.639838 45.826 108 180 106 255 
-0.41108 -0.703467 45.855 108 180 106 255 
-0.41946 -0.737019 45.8726 108 180 106 255 
-0.434022 -0.740633 45.8789 108 180 106 255 
-0.445475 -0.759187 45.8908 108 180 106 255 
-0.463129 -0.747859 45.8915 108 180 106 255 
-0.477672 -0.751469 45.8978 108 180 106 255 
-0.489094 -0.770005 45.9097 108 180 106 255 
-0.519237 -0.698901 45.8878 108 180 106 255 
-0.536911 -0.687561 45.8885 108 180 106 255 
-0.557728 -0.661236 45.8835 108 180 106 255 
-0.572267 -0.664867 45.8899 108 180 106 255 
-0.5868 -0.668499 45.8962 108 180 106 255 
-0.60448 -0.657153 45.8968 108 180 106 255 
-0.615845 -0.675758 45.9088 108 180 106 255 
-0.646192 -0.604453 45.8869 108 180 106 255 
-0.657544 -0.623101 45.8988 108 180 106 255 
-0.668884 -0.641731 45.9108 108 180 106 255 
-0.699312 -0.57036 45.8889 108 180 106 255 
-0.742652 -0.438441 45.8443 108 180 106 255 
-0.750774 -0.472322 45.862 108 180 106 255 
-0.774962 -0.430726 45.8513 108 180 106 255 
-0.786278 -0.449522 45.8633 108 180 106 255 
-0.775056 -0.573618 45.9148 108 180 106 255 
-0.786333 -0.592273 45.9267 108 180 106 255 
-0.797598 -0.610907 45.9386 108 180 106 255 
-0.834647 -0.509454 45.9056 108 180 106 255 
-0.852378 -0.49808 45.9062 108 180 106 255 
-0.860387 -0.531828 45.9238 108 180 106 255 
-0.86838 -0.565517 45.9413 108 180 106 255 
-0.882842 -0.569171 45.9476 108 180 106 255 
-0.897297 -0.57282 45.9539 108 180 106 255 
-0.941077 -0.441161 45.9096 108 180 106 255 
-0.945746 -0.490022 45.9328 108 180 106 255 
-0.956936 -0.508731 45.9447 108 180 106 255 
-0.968113 -0.527416 45.9566 108 180 106 255 
-0.992382 -0.485997 45.9461 108 180 106 255 
-1.01011 -0.474631 45.9467 108 180 106 255 
-1.02784 -0.46326 45.9474 108 180 106 255 
-1.05878 -0.391587 45.9256 108 180 106 255 
-1.07324 -0.395287 45.9319 108 180 106 255 
-1.08106 -0.429132 45.9494 108 180 106 255 
-1.09549 -0.432818 45.9557 108 180 106 255 
-1.11655 -0.406371 45.9508 108 180 106 255 
-1.13431 -0.394988 45.9515 108 180 106 255 
-1.16541 -0.32318 45.9296 108 180 106 255 
-1.16982 -0.37221 45.9528 108 180 106 255 
-1.19763 -0.315487 45.9366 108 180 106 255 
-1.2087 -0.33432 45.9486 108 180 106 255 
-1.21976 -0.353134 45.9605 108 180 106 255 
-1.23417 -0.356837 45.9668 108 180 106 255 
-1.24521 -0.375622 45.9787 108 180 106 255 
-1.2596 -0.37932 45.985 108 180 106 255 
-1.27399 -0.383016 45.9912 108 180 106 255 
-1.28837 -0.386711 45.9975 108 180 106 255 
-1.29599 -0.420503 46.015 108 180 106 255 
-1.3171 -0.39409 46.0101 108 180 106 255 
-1.3518 -0.307301 45.9827 108 180 106 255 
-1.35938 -0.341203 46.0002 108 180 106 255 
-1.36695 -0.375049 46.0177 108 180 106 255 
-1.3813 -0.378741 46.024 108 180 106 255 
-1.40927 -0.322146 46.0079 108 180 106 255 
-1.41679 -0.356006 46.0253 108 180 106 255 
-1.43113 -0.359703 46.0316 108 180 106 255 
-1.43181 -0.423554 46.0602 108 180 106 255 
-1.44612 -0.427232 46.0664 108 180 106 255 
-1.46042 -0.430904 46.0727 108 180 106 255 
-1.47129 -0.44958 46.0845 108 180 106 255 
-1.48216 -0.468235 46.0963 108 180 106 255 
-1.49644 -0.471895 46.1025 108 180 106 255 
-1.5451 -0.325333 46.0531 108 180 106 255 
-1.53872 -0.419255 46.0928 108 180 106 255 
-1.55299 -0.422928 46.099 108 180 106 255 
-1.56726 -0.4266 46.1052 108 180 106 255 
-1.57807 -0.445261 46.117 108 180 106 255 
-1.58887 -0.463901 46.1288 108 180 106 255 
-1.60311 -0.46756 46.135 108 180 106 255 
2.17012 -16.8563 52.1916 108 180 106 255 
2.16619 -16.882 52.2043 108 180 106 255 
2.1504 -16.8564 52.198 108 180 106 255 
-1.66001 -0.482174 46.1599 108 180 106 255 
-1.68117 -0.455915 46.155 108 180 106 255 
-1.72704 -0.388338 46.1398 108 180 106 255 
-1.73776 -0.407006 46.1516 108 180 106 255 
-1.73798 -0.470537 46.1799 108 180 106 255 
-1.75216 -0.474188 46.1861 108 180 106 255 
-1.75935 -0.507694 46.2032 108 180 106 255 
-1.78052 -0.481486 46.1984 108 180 106 255 
-1.78767 -0.514969 46.2156 108 180 106 255 
-1.80183 -0.518607 46.2218 108 180 106 255 
-1.823 -0.49242 46.217 108 180 106 255 
-1.83012 -0.525874 46.2342 108 180 106 255 
-1.84074 -0.544392 46.2458 108 180 106 255 
-1.83729 -0.622293 46.2793 108 180 106 255 
-1.84437 -0.65553 46.2963 108 180 106 255 
-1.87957 -0.570128 46.2698 108 180 106 255 
-1.90073 -0.544013 46.265 108 180 106 255 
-1.9113 -0.562502 46.2766 108 180 106 255 
-1.92894 -0.551258 46.2773 108 180 106 255 
-1.93595 -0.584581 46.2944 108 180 106 255 
-1.94649 -0.603025 46.306 108 180 106 255 
-1.95701 -0.621452 46.3175 108 180 106 255 
-1.98172 -0.580571 46.3074 108 180 106 255 
-1.99223 -0.599012 46.3189 108 180 106 255 
-2.00273 -0.617434 46.3305 108 180 106 255 
-2.0239 -0.591397 46.3258 108 180 106 255 
-2.04151 -0.580176 46.3265 108 180 106 255 
-2.05198 -0.598606 46.338 108 180 106 255 
-2.06602 -0.602204 46.3442 108 180 106 255 
-2.06932 -0.650191 46.3665 108 180 106 255 
-2.07619 -0.68331 46.3835 108 180 106 255 
-2.08661 -0.701637 46.395 108 180 106 255 
-2.09703 -0.719941 46.4064 108 180 106 255 
-2.10743 -0.738228 46.4179 108 180 106 255 
-2.11783 -0.756496 46.4294 108 180 106 255 
-2.1533 -0.671681 46.4032 108 180 106 255 
-2.16009 -0.70474 46.4201 108 180 106 255 
-2.18124 -0.678833 46.4154 108 180 106 255 
-2.18081 -0.7413 46.443 108 180 106 255 
-2.20195 -0.715436 46.4383 108 180 106 255 
-2.20869 -0.74841 46.4551 108 180 106 255 
-2.23706 -0.693117 46.4397 108 180 106 255 
-2.24377 -0.726113 46.4565 108 180 106 255 
-2.25769 -0.729672 46.4626 108 180 106 255 
-2.27161 -0.733226 46.4687 108 180 106 255 
-2.27828 -0.76615 46.4855 108 180 106 255 
-2.28494 -0.799018 46.5022 108 180 106 255 
-2.30971 -0.758565 46.4922 108 180 106 255 
-2.32723 -0.747433 46.493 108 180 106 255 
-2.33385 -0.780318 46.5097 108 180 106 255 
-2.3332 -0.842399 46.537 108 180 106 255 
-2.34342 -0.860529 46.5484 108 180 106 255 
-2.3609 -0.849435 46.5491 108 180 106 255 
-2.38932 -0.79446 46.5339 108 180 106 255 
-2.39588 -0.827248 46.5505 108 180 106 255 
-2.42068 -0.786883 46.5406 108 180 106 255 
-2.43086 -0.805049 46.552 108 180 106 255 
-2.44836 -0.793947 46.5527 108 180 106 255 
-2.46586 -0.782841 46.5534 108 180 106 255 
-2.47602 -0.801005 46.5648 108 180 106 255 
-2.48984 -0.804531 46.5708 108 180 106 255 
-2.50365 -0.808058 46.5768 108 180 106 255 
-2.52114 -0.796963 46.5775 108 180 106 255 
-2.52758 -0.829708 46.5941 108 180 106 255 
-2.53769 -0.847813 46.6054 108 180 106 255 
-2.55516 -0.836737 46.6062 108 180 106 255 
-2.56894 -0.840251 46.6122 108 180 106 255 
-2.58642 -0.829178 46.6129 108 180 106 255 
-2.59649 -0.847275 46.6242 108 180 106 255 
-2.62137 -0.807021 46.6143 108 180 106 255 
-2.63143 -0.825132 46.6256 108 180 106 255 
-2.64148 -0.843225 46.6369 108 180 106 255 
-2.65523 -0.846736 46.6429 108 180 106 255 
-2.66897 -0.850243 46.6489 108 180 106 255 
-2.68271 -0.853749 46.6549 108 180 106 255 
-2.7039 -0.828117 46.6503 108 180 106 255 
-2.72884 -0.787875 46.6405 108 180 106 255 
-2.75008 -0.762188 46.636 108 180 106 255 
-2.76381 -0.765716 46.642 108 180 106 255 
-2.7813 -0.754636 46.6427 108 180 106 255 
-2.80633 -0.714298 46.6329 108 180 106 255 
-2.81629 -0.732469 46.6442 108 180 106 255 
-2.82625 -0.750618 46.6554 108 180 106 255 
-2.84374 -0.739538 46.6562 108 180 106 255 
-2.85745 -0.743072 46.6622 108 180 106 255 
-2.86738 -0.761202 46.6734 108 180 106 255 
-2.87729 -0.779317 46.6846 108 180 106 255 
-2.89856 -0.753661 46.6801 108 180 106 255 
-2.91604 -0.742588 46.6809 108 180 106 255 
-2.92593 -0.760713 46.6921 108 180 106 255 
-2.93961 -0.764235 46.6981 108 180 106 255 
-2.9609 -0.738579 46.6936 108 180 106 255 
-2.9822 -0.712901 46.689 108 180 106 255 
-2.99587 -0.716436 46.695 108 180 106 255 
-3.00954 -0.719969 46.701 108 180 106 255 
-3.02321 -0.723505 46.707 108 180 106 255 
-3.03686 -0.727035 46.7129 108 180 106 255 
-3.05051 -0.730564 46.7189 108 180 106 255 
-3.07568 -0.690289 46.7092 108 180 106 255 
-3.08549 -0.708435 46.7204 108 180 106 255 
-3.10683 -0.682759 46.7159 108 180 106 255 
-3.12047 -0.6863 46.7219 108 180 106 255 
-3.13411 -0.689839 46.7278 108 180 106 255 
-3.14774 -0.693377 46.7338 108 180 106 255 
-3.18073 -0.623808 46.7136 108 180 106 255 
-3.19048 -0.641999 46.7248 108 180 106 255 
-3.20022 -0.660172 46.736 108 180 106 255 
-3.21773 -0.649099 46.7367 108 180 106 255 
-3.25082 -0.579446 46.7165 108 180 106 255 
-3.26445 -0.583012 46.7225 108 180 106 255 
-3.28589 -0.557251 46.718 108 180 106 255 
-3.29559 -0.575486 46.7292 108 180 106 255 
-3.32883 -0.505667 46.7089 108 180 106 255 
-3.34245 -0.509253 46.7149 108 180 106 255 
-3.35213 -0.527524 46.7261 108 180 106 255 
-3.37756 -0.487025 46.7164 108 180 106 255 
-3.38723 -0.505314 46.7276 108 180 106 255 
-3.40873 -0.479504 46.7231 108 180 106 255 
-3.43026 -0.453673 46.7186 108 180 106 255 
-3.44783 -0.442549 46.7193 108 180 106 255 
-3.46143 -0.446151 46.7253 108 180 106 255 
-3.46708 -0.479165 46.7418 108 180 106 255 
-3.49658 -0.423905 46.7268 108 180 106 255 
-3.51815 -0.39804 46.7223 108 180 106 255 
-3.53974 -0.372153 46.7177 108 180 106 255 
-3.54933 -0.390524 46.729 108 180 106 255 
-3.56291 -0.394137 46.735 108 180 106 255 
-3.57649 -0.397745 46.741 108 180 106 255 
-3.59407 -0.38662 46.7417 108 180 106 255 
-3.6197 -0.34598 46.7319 108 180 106 255 
-3.63328 -0.349605 46.7379 108 180 106 255 
-3.65491 -0.323698 46.7334 108 180 106 255 
-3.74569 -0.0450368 46.639 108 180 106 255 
-3.75114 -0.0786096 46.6557 108 180 106 255 
-3.77294 -0.0524551 46.6511 108 180 106 255 
-3.78246 -0.0710909 46.6624 108 180 106 255 
-3.85783 0.150039 46.5886 108 180 106 255 
-3.86734 0.131222 46.6 108 180 106 255 
-4.18171 1.21961 46.2184 108 180 106 255 
-4.18259 1.16839 46.2414 108 180 106 255 
-4.20078 1.18001 46.2421 108 180 106 255 
-4.22766 1.22308 46.2317 108 180 106 255 
-4.23718 1.20328 46.2436 108 180 106 255 
-4.238 1.15212 46.2665 108 180 106 255 
-4.25618 1.16374 46.2672 108 180 106 255 
-4.26132 1.12834 46.2846 108 180 106 255 
-4.30128 1.21839 46.2575 108 180 106 255 
-4.32823 1.26148 46.2471 108 180 106 255 
-4.34207 1.25738 46.2534 108 180 106 255 
-4.34714 1.22185 46.2708 108 180 106 255 
-4.36973 1.2492 46.266 108 180 106 255 
-4.40114 1.30808 46.25 108 180 106 255 
-4.4282 1.35128 46.2395 108 180 106 255 
-4.4553 1.39455 46.2291 108 180 106 255 
-4.478 1.42205 46.2242 108 180 106 255 
-4.49628 1.43374 46.2249 108 180 106 255 
-4.50567 1.41378 46.2368 108 180 106 255 
-4.51061 1.37804 46.2542 108 180 106 255 
-4.56006 1.50054 46.2158 108 180 106 255 
-4.57389 1.49638 46.2221 108 180 106 255 
-4.58325 1.47637 46.234 108 180 106 255 
-4.61498 1.53567 46.218 108 180 106 255 
-4.67384 1.69081 46.1681 108 180 106 255 
-4.60679 1.40067 46.2752 108 180 106 255 
-4.64746 1.49145 46.2481 108 180 106 255 
-8.79801 6.95099 45.1644 108 180 106 255 
-8.80568 6.92605 45.1779 108 180 106 255 
-8.81334 6.90114 45.1915 108 180 106 255 
-8.80339 6.77537 45.2441 108 180 106 255 
-8.81103 6.75063 45.2575 108 180 106 255 
-12.9008 1.55465 48.8839 108 180 106 255 
-19.8268 15.0852 45.1136 108 180 106 255 
13.1628 -10.241 45.0327 114 191 127 255 
13.1463 -10.2135 45.0258 114 191 127 255 
13.1789 -10.7667 45.2913 114 191 127 255 
13.2042 -11.2278 45.5134 114 191 127 255 
13.176 -11.0594 45.4403 114 191 127 255 
11.4538 -11.5578 46.4159 114 191 127 255 
11.4508 -11.6326 46.455 114 191 127 255 
11.4613 -11.8062 46.5382 114 191 127 255 
11.4398 -11.7453 46.5164 114 191 127 255 
11.4686 -12.051 46.6587 114 191 127 255 
11.5053 -12.4122 46.8255 114 191 127 255 
10.7676 -12.3728 47.1158 114 191 127 255 
10.7427 -12.2968 47.0879 114 191 127 255 
10.7864 -12.6504 47.248 114 191 127 255 
10.8092 -12.8715 47.35 114 191 127 255 
10.7726 -12.7218 47.2898 114 191 127 255 
-5.52624 85.9889 4.3224 114 191 127 255 
10.066 -12.5575 47.504 114 191 127 255 
10.0553 -12.5679 47.5137 114 191 127 255 
10.0493 -12.6035 47.5343 114 191 127 255 
10.0448 -12.6476 47.5584 114 191 127 255 
10.1054 -13.0492 47.7356 114 191 127 255 
10.0297 -12.7017 47.592 114 191 127 255 
10.1114 -13.2165 47.8175 114 191 127 255 
0.0849507 -0.499355 45.6147 114 191 127 255 
0.0767 -0.519049 45.6281 114 191 127 255 
0.0633148 -0.524044 45.6362 114 191 127 255 
0.0550806 -0.543711 45.6496 114 191 127 255 
0.04171 -0.548699 45.6577 114 191 127 255 
0.0386417 -0.582974 45.6763 114 191 127 255 
0.0355774 -0.617196 45.6949 114 191 127 255 
0.0273803 -0.636759 45.7082 114 191 127 255 
0.0191899 -0.656307 45.7215 114 191 127 255 
-0.0250534 -0.573603 45.6984 114 191 127 255 
-0.00744885 -0.666199 45.7377 114 191 127 255 
-0.0104668 -0.700267 45.7562 114 191 127 255 
-0.0186192 -0.71974 45.7694 114 191 127 255 
-0.0319099 -0.724666 45.7775 114 191 127 255 
-0.0658176 -0.671396 45.7649 114 191 127 255 
-0.0791079 -0.676337 45.773 114 191 127 255 
-0.107913 -0.637562 45.7655 114 191 127 255 
-0.100502 -0.700759 45.7943 114 191 127 255 
-0.103436 -0.734744 45.8127 114 191 127 255 
-0.127035 -0.710611 45.8104 114 191 127 255 
-0.129945 -0.744572 45.8288 114 191 127 255 
-0.153546 -0.720457 45.8265 114 191 127 255 
-0.156432 -0.754397 45.8449 114 191 127 255 
-0.174848 -0.744802 45.8478 114 191 127 255 
-0.203655 -0.706171 45.8404 114 191 127 255 
-0.211693 -0.725614 45.8536 114 191 127 255 
-0.224919 -0.730528 45.8616 114 191 127 255 
-0.23814 -0.735443 45.8697 114 191 127 255 
-0.277422 -0.667738 45.852 114 191 127 255 
-0.285424 -0.68721 45.8652 114 191 127 255 
-0.309095 -0.663063 45.863 114 191 127 255 
-0.317079 -0.682533 45.8761 114 191 127 255 
-0.361749 -0.600133 45.8533 114 191 127 255 
-0.364461 -0.634219 45.8717 114 191 127 255 
-0.367169 -0.668252 45.89 114 191 127 255 
-0.375117 -0.687708 45.9032 114 191 127 255 
-0.404066 -0.649037 45.8958 114 191 127 255 
-0.406738 -0.683034 45.9141 114 191 127 255 
-0.398908 -0.745948 45.9426 114 191 127 255 
-0.41207 -0.750854 45.9506 114 191 127 255 
-0.440993 -0.712298 45.9433 114 191 127 255 
-0.454151 -0.717211 45.9513 114 191 127 255 
-0.472572 -0.707625 45.9542 114 191 127 255 
-0.496276 -0.683533 45.952 114 191 127 255 
-0.530586 -0.630352 45.9396 114 191 127 255 
-0.538444 -0.649824 45.9527 114 191 127 255 
-0.578131 -0.582014 45.9352 114 191 127 255 
-0.585971 -0.601528 45.9483 114 191 127 255 
-0.625754 -0.533594 45.9308 114 191 127 255 
-0.617583 -0.59686 45.9593 114 191 127 255 
-0.630722 -0.601804 45.9673 114 191 127 255 
-0.708075 -0.43152 45.9138 114 191 127 255 
-0.721238 -0.436518 45.9219 114 191 127 255 
-0.675444 -0.602082 45.9862 114 191 127 255 
-0.715323 -0.534198 45.9687 114 191 127 255 
-0.712378 -0.582871 45.992 114 191 127 255 
-0.763068 -0.485735 45.9643 114 191 127 255 
-0.765437 -0.519914 45.9826 114 191 127 255 
-0.773178 -0.539463 45.9957 114 191 127 255 
-0.82402 -0.44218 45.968 114 191 127 255 
-0.826339 -0.476418 45.9862 114 191 127 255 
-0.834051 -0.496 45.9994 114 191 127 255 
-0.874203 -0.427875 45.9819 114 191 127 255 
-0.914465 -0.359562 45.9643 114 191 127 255 
-0.933029 -0.349894 45.9672 114 191 127 255 
-0.951598 -0.340221 45.9702 114 191 127 255 
-0.959261 -0.359925 45.9833 114 191 127 255 
-0.966915 -0.379607 45.9965 114 191 127 255 
-0.985469 -0.36995 45.9994 114 191 127 255 
-1.00403 -0.360287 46.0023 114 191 127 255 
-1.07746 -0.203373 45.954 114 191 127 255 
-1.05759 -0.296871 45.9928 114 191 127 255 
-1.0652 -0.316603 46.006 114 191 127 255 
-1.09477 -0.277509 45.9987 114 191 127 255 
-1.09686 -0.311952 46.017 114 191 127 255 
-1.11544 -0.302284 46.0199 114 191 127 255 
-1.12302 -0.322001 46.033 114 191 127 255 
-1.15261 -0.282932 46.0258 114 191 127 255 
-1.16017 -0.302662 46.0389 114 191 127 255 
-1.18427 -0.278286 46.0367 114 191 127 255 
-1.19733 -0.283318 46.0448 114 191 127 255 
-1.22145 -0.258933 46.0426 114 191 127 255 
-1.23451 -0.263967 46.0506 114 191 127 255 
-1.24202 -0.283708 46.0637 114 191 127 255 
-1.24398 -0.318107 46.0819 114 191 127 255 
-1.27919 -0.264364 46.0696 114 191 127 255 
-1.28668 -0.284096 46.0827 114 191 127 255 
-1.29415 -0.303807 46.0958 114 191 127 255 
-1.27944 -0.382088 46.1291 114 191 127 255 
-1.32574 -0.299167 46.1067 114 191 127 255 
-1.32763 -0.333518 46.1249 114 191 127 255 
-1.33507 -0.353175 46.1379 114 191 127 255 
-1.34806 -0.358175 46.1459 114 191 127 255 
-1.39448 -0.275208 46.1236 114 191 127 255 
-1.40189 -0.294913 46.1366 114 191 127 255 
-1.42605 -0.270573 46.1345 114 191 127 255 
-1.43904 -0.275598 46.1425 114 191 127 255 
-1.44083 -0.309961 46.1606 114 191 127 255 
-1.45381 -0.314974 46.1686 114 191 127 255 
-1.46118 -0.334628 46.1816 114 191 127 255 
-1.46854 -0.354263 46.1946 114 191 127 255 
-1.47589 -0.373878 46.2076 114 191 127 255 
-1.48883 -0.378865 46.2155 114 191 127 255 
-1.50176 -0.38385 46.2235 114 191 127 255 
-1.50909 -0.40343 46.2365 114 191 127 255 
-1.51642 -0.422987 46.2494 114 191 127 255 
-1.57423 -0.311096 46.2172 114 191 127 255 
-1.59279 -0.301458 46.2202 114 191 127 255 
-1.59445 -0.335735 46.2382 114 191 127 255 
-1.59776 -0.40412 46.2741 114 191 127 255 
-1.60503 -0.423664 46.287 114 191 127 255 
-1.6348 -0.384909 46.28 114 191 127 255 
-1.62516 -0.448146 46.3078 114 191 127 255 
-1.65492 -0.409436 46.3008 114 191 127 255 
-1.67344 -0.399838 46.3037 114 191 127 255 
-1.68066 -0.419374 46.3166 114 191 127 255 
-1.68788 -0.438891 46.3295 114 191 127 255 
-1.70073 -0.443851 46.3374 114 191 127 255 
-1.70793 -0.463337 46.3503 114 191 127 255 
-1.76038 -0.366403 46.3234 114 191 127 255 
-1.76756 -0.38596 46.3363 114 191 127 255 
-1.72949 -0.52168 46.3888 114 191 127 255 
-1.73666 -0.541086 46.4016 114 191 127 255 
-1.77772 -0.473556 46.3848 114 191 127 255 
-1.78488 -0.493004 46.3976 114 191 127 255 
-1.79202 -0.512428 46.4104 114 191 127 255 
-1.79916 -0.531837 46.4232 114 191 127 255 
-1.80628 -0.55122 46.436 114 191 127 255 
-1.81341 -0.570587 46.4488 114 191 127 255 
-1.82052 -0.589931 46.4615 114 191 127 255 
-1.85594 -0.537057 46.4497 114 191 127 255 
-1.86871 -0.541977 46.4576 114 191 127 255 
-1.89284 -0.517968 46.4556 114 191 127 255 
-1.89991 -0.537356 46.4684 114 191 127 255 
-1.92974 -0.498875 46.4615 114 191 127 255 
-1.89701 -0.619315 46.5085 114 191 127 255 
-1.93247 -0.566538 46.4968 114 191 127 255 
-1.9452 -0.571447 46.5046 114 191 127 255 
-1.95224 -0.590768 46.5173 114 191 127 255 
-1.97066 -0.581253 46.5203 114 191 127 255 
-1.97198 -0.614965 46.5378 114 191 127 255 
-2.0075 -0.562208 46.5262 114 191 127 255 
-2.0145 -0.581533 46.5389 114 191 127 255 
-2.03292 -0.572017 46.5418 114 191 127 255 
-2.03991 -0.591328 46.5545 114 191 127 255 
-2.0526 -0.596221 46.5623 114 191 127 255 
-2.0882 -0.543456 46.5506 114 191 127 255 
-2.09515 -0.562786 46.5633 114 191 127 255 
-2.12507 -0.524407 46.5565 114 191 127 255 
-2.08615 -0.658882 46.608 114 191 127 255 
-2.09881 -0.663754 46.6158 114 191 127 255 
-2.10574 -0.682963 46.6284 114 191 127 255 
-2.12411 -0.673484 46.6313 114 191 127 255 
-2.13102 -0.692681 46.6439 114 191 127 255 
-2.14366 -0.697538 46.6517 114 191 127 255 
-2.15628 -0.702391 46.6595 114 191 127 255 
-2.16317 -0.721555 46.672 114 191 127 255 
-2.17579 -0.7264 46.6798 114 191 127 255 
-2.22863 -0.63095 46.6538 114 191 127 255 
-2.24125 -0.635826 46.6616 114 191 127 255 
-2.2481 -0.655041 46.6742 114 191 127 255 
-2.26071 -0.659906 46.6819 114 191 127 255 
-2.23878 -0.750595 46.7185 114 191 127 255 
-2.24561 -0.769698 46.731 114 191 127 255 
-2.25819 -0.774523 46.7387 114 191 127 255 
-2.30532 -0.693657 46.7177 114 191 127 255 
-2.29483 -0.755651 46.7446 114 191 127 255 
-2.34782 -0.660415 46.7188 114 191 127 255 
-2.36039 -0.665275 46.7265 114 191 127 255 
-2.37296 -0.670131 46.7343 114 191 127 255 
-2.37395 -0.703595 46.7516 114 191 127 255 
-2.38071 -0.722723 46.7641 114 191 127 255 
-2.39326 -0.72756 46.7718 114 191 127 255 
-2.40001 -0.746663 46.7843 114 191 127 255 
-2.41833 -0.737229 46.7872 114 191 127 255 
-2.43086 -0.742057 46.7949 114 191 127 255 
-2.43759 -0.761143 46.8074 114 191 127 255 
-2.47333 -0.708914 46.7961 114 191 127 255 
-2.48586 -0.713752 46.8038 114 191 127 255 
-2.49837 -0.718588 46.8115 114 191 127 255 
-2.50506 -0.737684 46.8239 114 191 127 255 
-2.53505 -0.699713 46.8174 114 191 127 255 
-2.54172 -0.718822 46.8298 114 191 127 255 
-2.58343 -0.652236 46.8137 114 191 127 255 
-2.57255 -0.714225 46.8405 114 191 127 255 
-2.58504 -0.719059 46.8481 114 191 127 255 
-2.58584 -0.752384 46.8653 114 191 127 255 
-2.59247 -0.771433 46.8777 114 191 127 255 
-2.63418 -0.70503 46.8617 114 191 127 255 
-2.63494 -0.738369 46.8789 114 191 127 255 
-2.65326 -0.728947 46.8818 114 191 127 255 
-2.67158 -0.719525 46.8848 114 191 127 255 
-2.67817 -0.738594 46.8972 114 191 127 255 
-2.70824 -0.700677 46.8907 114 191 127 255 
-2.72069 -0.705508 46.8983 114 191 127 255 
-2.72138 -0.738825 46.9154 114 191 127 255 
-2.76325 -0.672387 46.8995 114 191 127 255 
-2.7757 -0.677227 46.9072 114 191 127 255 
-2.79404 -0.667796 46.9101 114 191 127 255 
-2.79466 -0.701156 46.9272 114 191 127 255 
-2.80709 -0.705984 46.9349 114 191 127 255 
-2.81951 -0.710814 46.9426 114 191 127 255 
-2.82011 -0.744092 46.9596 114 191 127 255 
-2.86208 -0.677725 46.9438 114 191 127 255 
-2.89822 -0.625469 46.9326 114 191 127 255 
-2.9047 -0.644602 46.945 114 191 127 255 
-2.91117 -0.663712 46.9573 114 191 127 255 
-2.95927 -0.582842 46.9367 114 191 127 255 
-2.97765 -0.573393 46.9397 114 191 127 255 
-2.98409 -0.592566 46.9521 114 191 127 255 
-3.00246 -0.583122 46.955 114 191 127 255 
-3.00888 -0.602278 46.9674 114 191 127 255 
-3.03323 -0.578539 46.9657 114 191 127 255 
-3.0516 -0.569094 46.9686 114 191 127 255 
-3.06399 -0.573959 46.9763 114 191 127 255 
-3.08836 -0.5502 46.9745 114 191 127 255 
-3.09474 -0.569377 46.9869 114 191 127 255 
-3.10712 -0.574242 46.9946 114 191 127 255 
-3.12549 -0.564801 46.9975 114 191 127 255 
-3.13786 -0.569665 47.0052 114 191 127 255 
-3.15623 -0.560223 47.0081 114 191 127 255 
-3.18063 -0.536466 47.0064 114 191 127 255 
-3.22924 -0.455294 46.9859 114 191 127 255 
-3.23555 -0.474549 46.9982 114 191 127 255 
-3.24791 -0.479436 47.0059 114 191 127 255 
-3.27845 -0.441249 46.9995 114 191 127 255 
-3.29688 -0.431777 47.0024 114 191 127 255 
-3.30923 -0.436677 47.0101 114 191 127 255 
-3.32766 -0.427205 47.0131 114 191 127 255 
-3.34609 -0.417732 47.016 114 191 127 255 
-3.37673 -0.379473 47.0096 114 191 127 255 
-3.39518 -0.369986 47.0126 114 191 127 255 
-3.3953 -0.403687 47.0296 114 191 127 255 
-3.41985 -0.37982 47.0279 114 191 127 255 
-3.45055 -0.341516 47.0215 114 191 127 255 
-3.45676 -0.360851 47.0339 114 191 127 255 
-3.46295 -0.380166 47.0462 114 191 127 255 
-3.51827 -0.284149 47.021 114 191 127 255 
-3.52444 -0.303532 47.0334 114 191 127 255 
-3.53061 -0.322896 47.0458 114 191 127 255 
-3.53677 -0.34224 47.0581 114 191 127 255 
-3.55523 -0.33275 47.0611 114 191 127 255 
-3.56137 -0.352081 47.0734 114 191 127 255 
-3.57367 -0.356999 47.0811 114 191 127 255 
-3.58596 -0.361915 47.0887 114 191 127 255 
-3.62911 -0.294788 47.073 114 191 127 255 
-3.6414 -0.299722 47.0807 114 191 127 255 
-3.6475 -0.319073 47.093 114 191 127 255 
-3.66597 -0.309585 47.096 114 191 127 255 
-3.67205 -0.328924 47.1083 114 191 127 255 
-3.69052 -0.319441 47.1113 114 191 127 255 
-3.69659 -0.338763 47.1236 114 191 127 255 
-3.69646 -0.372444 47.1405 114 191 127 255 
-3.70251 -0.391712 47.1528 114 191 127 255 
-3.71475 -0.396614 47.1604 114 191 127 255 
-3.72699 -0.401511 47.168 114 191 127 255 
-3.75782 -0.363331 47.1617 114 191 127 255 
-3.77626 -0.353866 47.1647 114 191 127 255 
-3.77607 -0.387502 47.1816 114 191 127 255 
-3.80071 -0.363686 47.1799 114 191 127 255 
-3.80671 -0.382946 47.1922 114 191 127 255 
-3.80649 -0.416526 47.209 114 191 127 255 
-3.83113 -0.392742 47.2074 114 191 127 255 
-3.86825 -0.34021 47.1965 114 191 127 255 
-3.87422 -0.359488 47.2087 114 191 127 255 
-3.90515 -0.321281 47.2024 114 191 127 255 
-3.9111 -0.340572 47.2147 114 191 127 255 
-3.91704 -0.35984 47.2269 114 191 127 255 
-3.9668 -0.278472 47.2067 114 191 127 255 
-3.979 -0.2834 47.2144 114 191 127 255 
-3.98491 -0.30272 47.2266 114 191 127 255 
-4.00965 -0.278856 47.2249 114 191 127 255 
-4.09124 -0.124886 47.1815 114 191 127 255 
-4.07814 -0.187747 47.2078 114 191 127 255 
-4.09032 -0.192705 47.2154 114 191 127 255 
-4.10883 -0.183205 47.2184 114 191 127 255 
-4.12101 -0.188162 47.226 114 191 127 255 
-4.12685 -0.207553 47.2382 114 191 127 255 
-4.1011 -0.298921 47.2735 114 191 127 255 
-4.15751 -0.203014 47.2488 114 191 127 255 
-4.16966 -0.20796 47.2564 114 191 127 255 
-4.24543 -0.0681998 47.2178 114 191 127 255 
-4.2576 -0.0731879 47.2254 114 191 127 255 
-4.257 -0.107167 47.2423 114 191 127 255 
-4.2564 -0.141092 47.2592 114 191 127 255 
-4.24944 -0.189398 47.2806 114 191 127 255 
-4.25521 -0.208771 47.2928 114 191 127 255 
-4.26097 -0.228122 47.305 114 191 127 255 
-4.28582 -0.204233 47.3034 114 191 127 255 
-4.38112 -0.0210142 47.251 114 191 127 255 
-4.38684 -0.0405399 47.2633 114 191 127 255 
-4.39898 -0.0455316 47.2709 114 191 127 255 
-4.39826 -0.0795215 47.2877 114 191 127 255 
-4.40396 -0.0989842 47.3 114 191 127 255 
